# This PCD file was generated using the MATLAB® pcwrite function
# from Computer Vision Toolbox®.
# .PCD v.7 - Point Cloud Data file format
VERSION .7
FIELDS x y z intensity
SIZE 8 8 8 1
TYPE F F F U
COUNT 1 1 1 1
WIDTH 897
HEIGHT 1
VIEWPOINT 0 0 0 1 0 0 0
POINTS 897
DATA ascii
-2.978809847523740 2.165821114384460 -0.193015006623977 12
-2.982510651696306 2.184466991598505 -0.193747710011378 15
-2.980072422911924 2.197901817825182 -0.194061725748836 15
-2.993224104293096 2.223775061324205 -0.195422460611152 13
-2.988251156881507 2.237124766410983 -0.195631804436124 12
-2.989991902789875 2.254757303582617 -0.196259835911039 16
-2.966591759905006 2.252581889543273 -0.195213116786180 13
-2.996785269645220 2.292044235184445 -0.197725242685842 21
-3.025156768895190 2.330525568907152 -0.200132696673017 6
-2.868677810860567 2.225976636735113 -0.190293536899344 9
-2.840432814543711 2.219987797799288 -0.188932802037027 4
-2.821680896609447 2.221241463816479 -0.188200098649626 5
-2.795129858498331 2.216187041214567 -0.186944035699795 12
-2.801423025339372 2.237147257769662 -0.187886082912168 15
-3.022800327861389 2.430393862049610 -0.203272854047594 3
-3.015850415973099 2.442187513359537 -0.203377525960080 3
-3.066122283600924 2.500668315003916 -0.207355058634543 3
-3.057374642341943 2.511355844165287 -0.207355058634543 8
-3.052108149243357 2.524026320020042 -0.207564402459515 25
-3.046348427402607 2.537221182557125 -0.207773746284487 21
-3.049715019342409 2.558107836028154 -0.208611121584374 21
-3.066704276548145 2.590648702382483 -0.210390544096634 15
-3.062206187161361 2.605220308491356 -0.210704559834092 15
-3.080394005198306 2.639284531235455 -0.212588654258838 15
-3.075698845074786 2.653935392490571 -0.212902669996296 17
-3.078476777330711 2.675135870282537 -0.213740045296183 22
-3.089602341953247 2.701886197265203 -0.215100780158499 9
-3.081651033666879 2.713974487739113 -0.215205452070985 6
-3.066181757816833 2.719413921024310 -0.214786764421041 8
-3.050712129408534 2.724778492123920 -0.214368076771098 15
-3.024372915263076 2.721246610351189 -0.213216685733753 20
-2.977854393534821 2.698259976005421 -0.210599887921606 28
-2.974318992996325 2.714023155513798 -0.211018575571550 26
-2.979533647605153 2.737902765544106 -0.212065294696408 8
-3.106790835617807 2.873899712964704 -0.221799782557596 2
-3.079203136025876 2.868390579197677 -0.220543719607765 9
nan nan nan 0
-3.098303773678230 2.926848754394165 -0.223369861244884 27
-3.099226454371005 2.946200506593561 -0.224102564632285 23
-3.100465397652671 2.968049922319667 -0.224939939932173 23
-3.107341098563685 2.995488385131419 -0.226196002882003 24
-3.119795094333611 3.028575488423490 -0.227870753481777 34
-3.129199269671776 3.058993438418002 -0.229336160256580 31
-3.139852181922083 3.090914845882352 -0.230906238943868 27
-3.143771770668626 3.115368498137936 -0.231952958068727 20
-3.142774227398215 3.136198899711923 -0.232685661456128 5
-4.168699502655557 4.189121552698044 -0.309724189045742 6
nan nan nan 0
nan nan nan 0
nan nan nan 0
nan nan nan 0
nan nan nan 0
nan nan nan 0
nan nan nan 0
nan nan nan 0
nan nan nan 0
nan nan nan 0
nan nan nan 0
nan nan nan 0
nan nan nan 0
nan nan nan 0
-8.292449884315287 9.242086425519677 -0.650745279924764 1
-8.241537538783938 9.250098953153831 -0.649279873149961 1
-8.177436283892634 9.242910326514750 -0.646767747250300 1
nan nan nan 0
-8.073321382486611 9.254622054986102 -0.643627589875723 1
-7.999121552568377 9.234438497082389 -0.640278088676175 1
-7.953814518861241 9.247162475902197 -0.639231369551316 1
-7.900733584642780 9.250570489549752 -0.637556618951542 1
-7.852893252660785 9.259813883915086 -0.636300556001711 1
-7.820522627709160 9.287169182906107 -0.636300556001711 1
-7.770120736837320 9.292960134869661 -0.634835149226909 1
-7.695875645735193 9.266435791237775 -0.631276304202388 4
-7.663482862618396 9.293242956154041 -0.631276304202388 4
-7.661363792558308 9.357025011398939 -0.633788430102050 4
-7.686610104260137 9.454999464922441 -0.638603338076401 4
-7.706247167052055 9.547046777312790 -0.642999558400808 1
nan nan nan 0
nan nan nan 0
nan nan nan 0
nan nan nan 0
nan nan nan 0
nan nan nan 0
nan nan nan 0
nan nan nan 0
nan nan nan 0
nan nan nan 0
-4.714496313477684 6.318075325502693 -0.413140038581799 3
-4.686553441184522 6.328891998557607 -0.412721350931855 7
-4.651420312878273 6.327510983084567 -0.411569959894510 10
-4.615102861783565 6.321929924228488 -0.410209225032194 35
-4.597695029193115 6.344470122544453 -0.410627912682137 35
-4.563857364215184 6.344267113306550 -0.409581193557278 40
-4.539362603741976 6.356908512822534 -0.409371849732307 38
-4.504440364896425 6.354791346393258 -0.408220458694962 36
-4.469588372136016 6.352508052558680 -0.407069067657617 40
-4.447386750650233 6.368071125882398 -0.407069067657617 40
-4.420579505949646 6.376990849924249 -0.406650380007674 38
-4.394878701034941 6.385034143629430 -0.406231692357730 40
-4.368057361028916 6.393739648747917 -0.405813004707786 40
-4.371493032912900 6.446968645828584 -0.408220458694962 36
-4.383530954587676 6.513554842553914 -0.411465287982024 31
-4.402880618958785 6.594358387031807 -0.415547492568974 33
-4.422861277422319 6.674618568723088 -0.419629697155924 27
-4.431438892641279 6.735968227031546 -0.422560510705528 27
-4.450482098937024 6.816618595794323 -0.426642715292478 30
-4.583985796425756 7.077634680914413 -0.441924814515418 14
-4.553852914939337 7.085191908809804 -0.441401454952988 22
-4.529093236145383 7.101044656518332 -0.441401454952988 26
-4.290653597211013 6.779281315133680 -0.420467072455811 11
-4.471269892988596 7.114016393760100 -0.440354735828129 3
-4.399906168489558 7.055014129530062 -0.435749171678750 6
-4.170185011628939 6.741573127360581 -0.415442820656488 21
-1.078185737368087 1.756685199437120 -0.108021413685436 3
-4.113809295237337 6.752745586311858 -0.414396101531629 17
-4.117074467034541 6.811505763386061 -0.417117571256262 42
-4.272810713189339 7.128048657774968 -0.435539827853779 37
-4.227485445439473 7.108587414946559 -0.433446389604061 11
-3.939940661655536 6.675364214389917 -0.406231692357730 1
-3.904505166651353 6.668393970303388 -0.404975629407899 1
-3.862301390983923 6.646767477898654 -0.402882191158182 3
-3.827107251229742 6.639444445187044 -0.401626128208351 3
-3.807873451195946 6.659698472582565 -0.402044815858294 3
-3.790515469943847 6.683373627902074 -0.402672847333210 1
-3.737785640459808 6.644342566095376 -0.399532689958633 3
-3.728194091067151 6.681767232233411 -0.400998096733436 3
-3.699045233491850 6.684255244335461 -0.400370065258520 3
-3.677612222178861 6.700628364586337 -0.400579409083492 5
-3.649640996856538 6.702262564956182 -0.399951377608577 5
-3.622427400760424 6.707931824032985 -0.399532689958633 5
-3.596390412608621 6.712865261068326 -0.399114002308690 5
-3.567313985280109 6.714795295574810 -0.398485970833774 3
-3.544540208774717 6.731359502689517 -0.398695314658746 5
-3.518248598679867 6.738379860067028 -0.398381298921288 15
-3.512151811967400 6.784319675585681 -0.400370065258520 3
-3.524929229146395 6.867612948498543 -0.404556941757956 5
-3.546225548098420 6.968877677035667 -0.409790537382250 5
-3.577652334032986 7.091772033507763 -0.416280195956375 5
-3.613097551890224 7.221484164511619 -0.423188542180444 4
-3.641113483086874 7.341408931820276 -0.429468856929597 3
-3.670097910776300 7.465200700455094 -0.435958515503722 4
-3.750756655498490 7.697008721220785 -0.448728488827000 1
nan nan nan 0
-5.056007258179560 10.562161210788668 -0.613691422904759 37
-5.014827308522281 10.570723153682353 -0.613168063342330 43
-4.973649243356110 10.579126413413993 -0.612644703779900 47
-4.943765760873966 10.601939887572406 -0.613063391429844 19
-4.981288113642698 10.780495205262795 -0.622379191641088 4
-5.024021424187473 10.978476518009908 -0.632741710977191 6
-5.070618969210552 11.183305304029673 -0.643522917963237 17
-5.104389060039932 11.363084525418129 -0.652838718174481 4
-5.157265953726448 11.588852013020727 -0.664771316197873 5
-5.228421471593924 11.854418367079884 -0.679006696295953 35
-5.251777635647126 12.020844058294545 -0.687485121207310 5
-5.305208901992986 12.265487299889971 -0.700359766443074 5
-5.363031946258805 12.518924961329555 -0.713757771241268 5
-5.501678554051275 12.954855516215588 -0.737622967288050 6
-5.543144671271278 13.180180248907858 -0.749346221486470 4
-5.562342947548071 13.362670679207396 -0.758557349785228 2
-5.517186827064369 13.385698585428226 -0.758766693610200 6
-5.469748040889514 13.396524350406766 -0.758348005960256 6
-5.433431255162444 13.441459458453602 -0.759813412735059 4
nan nan nan 0
-5.477746588383900 13.828156816899059 -0.779491732282405 24
-4.070442530163095 10.381211383168962 -0.584383287408711 4
-4.083316181194493 10.521970326800096 -0.591500977457751 3
-5.397087882639339 14.052563322070696 -0.788912204406135 2
-3.921773819041364 10.318716916401693 -0.578521660309501 32
-3.877294339910951 10.309910427923198 -0.577265597359670 32
-3.829441652931230 10.291560051292263 -0.575486174847410 30
-3.800124683858865 10.317321560923279 -0.576218878234812 30
-3.764087359090890 10.330523614875384 -0.576218878234812 30
-3.731164474502357 10.346706633949980 -0.576428222059783 30
-3.697708871882622 10.367192519749928 -0.576846909709727 29
-3.658358236225819 10.376908409205953 -0.576637565884755 27
nan nan nan 0
-3.627365848422715 10.516743873695834 -0.583022552546394 40
-3.568715771588670 10.465069209196816 -0.579463707521874 11
-3.535907826709747 10.482523438210141 -0.579777723259332 1
-3.414640170501879 10.240910971913932 -0.565751686986223 1
nan nan nan 0
-4.377216144788489 13.439753153050953 -0.740763124662627 2
-4.648453673856824 14.443586234017038 -0.795192519155289 2
nan nan nan 0
nan nan nan 0
-1.951530803600872 6.284956299348340 -0.344893951641000 1
-1.924895453841392 6.276454298730866 -0.344056576341113 1
-1.893711777347904 6.252551030558316 -0.342381825741339 3
nan nan nan 0
-1.783276402995345 6.039589482170324 -0.330030540068004 10
nan nan nan 0
-1.737203638614384 6.038455965952092 -0.329297836680603 33
-1.712879299738953 6.037096902473793 -0.328879149030659 29
-1.691257018040335 6.041115877230380 -0.328774477118173 31
-1.666945972963848 6.027149379255527 -0.327727757993314 29
-1.641691717580816 6.017516679007137 -0.326890382693427 29
-1.621195611380575 6.025139253486482 -0.326995054605913 29
-1.600666286851813 6.032692036483184 -0.327099726518399 29
-1.578082095480624 6.032445938353105 -0.326785710780941 31
-1.554521696934348 6.028247769620764 -0.326262351218512 29
-1.534590467099143 6.029230592261177 -0.326053007393540 29
-1.513535175549281 6.034550580510917 -0.326053007393540 31
-1.495815287988139 6.053369617283447 -0.326785710780941 29
-1.474203621981346 6.056613507545360 -0.326681038868455 29
-1.451656395327216 6.055895827713536 -0.326367023130998 28
-1.433720062939204 6.074533113749335 -0.327099726518399 29
-1.412507250615616 6.079500722581575 -0.327099726518399 29
-1.392167644762441 6.088288266939038 -0.327309070343371 7
-1.378798445395734 6.128184617588169 -0.329193164768117 1
-1.398832798400643 6.320166603228301 -0.339241668366762 1
-1.391896176618927 6.389169632569381 -0.342695841478796 8
-1.367912045784897 6.386177494007146 -0.342277153828853 8
-1.348903809106988 6.406548753711113 -0.343114529128740 8
-1.327341917477265 6.415129940411795 -0.343323872953712 8
-1.304940848450733 6.419724145187606 -0.343323872953712 8
-1.282914892509561 6.426198737445666 -0.343428544866197 3
-0.537459665989960 2.741987892698894 -0.146436005567757 3
-0.521093122566846 2.708544018951591 -0.144551911143011 20
-0.514599219270921 2.726047248107300 -0.145389286442898 20
-0.499989600269062 2.700332630711273 -0.143923879668096 24
-0.491032225460502 2.701975808629787 -0.143923879668096 25
-0.482298083812210 2.707605985411571 -0.144133223493067 29
-0.470783515093314 2.697467913021435 -0.143505192018152 30
-0.461364726730925 2.699094820267034 -0.143505192018152 31
-0.449303174163290 2.684929896991658 -0.142667816718265 34
-0.438637223720423 2.678597874121112 -0.142249129068321 35
-0.429916265200715 2.684056927193754 -0.142458472893293 33
-0.420544538892257 2.685541262819994 -0.142458472893293 33
nan nan nan 0
-0.408757323868031 2.731797508829002 -0.144761254967983 2
-0.396332464102384 2.713444805056098 -0.143714535843124 1
-0.389675973249927 2.734584578127328 -0.144761254967983 1
-0.380128117682858 2.735928141089780 -0.144761254967983 1
-0.364680717960866 2.693695891790396 -0.142458472893293 2
-0.349532857929244 2.651389666487929 -0.140155690818604 3
-0.342308664964206 2.668441817465190 -0.140993066118491 6
nan nan nan 0
-0.325593559826270 2.686628548885522 -0.141830441418378 40
-0.314577011419497 2.665819706707539 -0.140679050381033 33
-0.303679701495609 2.653011432101768 -0.139946346993632 34
-0.293514167147549 2.650136412268078 -0.139737003168660 32
-0.284261676540780 2.651144822373094 -0.139737003168660 21
-0.274131535556858 2.648195599552893 -0.139527659343688 14
-0.264687223604525 2.647149014361732 -0.139422987431202 17
-0.254946892035110 2.638072208189070 -0.138899627868773 40
-0.244070108735185 2.621048165898793 -0.137957580656400 33
-0.236448577050086 2.633778673032565 -0.138585612131315 36
-0.226738608347698 2.628618376469898 -0.138271596393858 34
-0.217102717415066 2.629431759092007 -0.138271596393858 34
-0.207293372432925 2.622209380140386 -0.137852908743914 33
-0.197993494040985 2.614916138462137 -0.137434221093970 32
-0.189439895019803 2.623559624198720 -0.137852908743914 29
nan nan nan 0
-0.172734741282767 2.656736859651713 -0.139527659343688 2
-0.161988439247936 2.633401737521397 -0.138271596393858 1
-0.152101167136226 2.621987697147376 -0.137643564918942 1
-0.144519622906656 2.634418160472177 -0.138271596393858 1
-0.135527786459295 2.638895838848807 -0.138480940218829 2
-0.125742635894097 2.627382987892942 -0.137852908743914 3
-0.115508445060659 2.603862342912692 -0.136596845794083 4
-0.104862702917547 2.588321691696757 -0.135759470494196 20
-0.095236065827579 2.572704825663851 -0.134922095194309 20
-0.087914909407819 2.608936763355089 -0.136806189619055 40
-0.078144223835771 2.587267913437428 -0.135654798581710 30
-0.069379135072074 2.597507660212212 -0.136178158144140 33
-0.060219002661037 2.593740571693929 -0.135968814319168 31
-0.051538045167246 2.589932276348452 -0.135759470494196 31
-0.042661009174339 2.600081350367327 -0.136282830056626 27
-0.033003717101217 2.590234761721153 -0.135759470494196 23
-0.023924959649877 2.586339838355684 -0.135550126669225 13
-0.015641022403203 2.560438354177791 -0.134189391806908 16
-0.006692871736046 2.556482848018089 -0.133980047981936 22
0.002681334312114 2.560484723167237 -0.134189391806908 27
0.011718773272718 2.582429387776573 -0.135340782844253 32
0.012036542988155 2.554214845418484 -0.223467324404996 15
0.020903312877770 2.548180301803862 -0.222944389948510 19
0.029797994704371 2.548091811238772 -0.222944389948510 28
0.038752817460336 2.551956592405172 -0.223293012919500 32
0.047437337725307 2.539853520573673 -0.222247144006528 33
0.056479428217081 2.547640059580388 -0.222944389948510 33
0.065269783880600 2.543443921110877 -0.222595766977519 34
0.074379918151893 2.551166764082084 -0.223293012919500 33
0.082634545102136 2.530978303862629 -0.221549898064547 33
0.091324872633121 2.526692257386232 -0.221201275093556 31
nan nan nan 0
0.108676587068304 2.539964979199516 -0.222421455492024 3
0.117985294137603 2.539549599142350 -0.222421455492024 3
0.126849257733092 2.539122281803178 -0.222421455492024 4
0.134420514232932 2.522771136411615 -0.221026963608061 5
0.143677626369886 2.530243291578919 -0.221724209550042 6
0.152709978422610 2.525722176360050 -0.221375586579052 8
0.161907019964120 2.531138708812415 -0.221898521035538 10
0.170607231305348 2.528570257581492 -0.221724209550042 11
nan nan nan 0
0.186784244418348 2.519435398535804 -0.221026963608061 37
0.196348782161706 2.528700101258719 -0.221898521035538 36
0.211299005376356 2.603461976380057 -0.228522357484360 19
0.223747593881830 2.642414242638767 -0.232008587194266 19
0.231394673618546 2.623754944931356 -0.230439783824808 15
0.242007562380481 2.638803745706991 -0.231834275708771 3
0.800637652823546 8.391692293776146 -0.737511895130683 2
0.949578852246769 9.598299581123996 -0.843841901282826 5
1.015569097894091 9.912048586578294 -0.871731738962077 5
1.058772027024570 9.989676188930428 -0.878878509867385 20
nan nan nan 0
1.208389526313461 10.688821966452540 -0.941107710189213 3
nan nan nan 0
nan nan nan 0
0.876175435655393 7.084758277102641 -0.624558052529718 2
1.355499497352541 10.655096629314039 -0.939713218305250 3
1.390309637507502 10.646591814702314 -0.939364595334260 3
0.942725347179901 7.027967579901617 -0.620374576877831 4
1.467863700774697 10.660311446139863 -0.941456333160203 3
1.472741123932637 10.426277257206163 -0.921236200842747 3
1.509019036937293 10.433167368060765 -0.922282069755719 5
1.581062917456933 10.668281637113866 -0.943548070986147 5
1.621350736121511 10.670294212060767 -0.944245316928129 3
1.657362408449969 10.656694744844447 -0.943548070986147 3
1.515699047292363 9.537424026109493 -0.844887770195798 16
nan nan nan 0
1.774283068156369 10.694406314492582 -0.948428792580016 3
1.814266335137454 10.703862732372691 -0.949823284463979 3
1.850939117786700 10.693538153924068 -0.949474661492988 5
1.639700267611062 9.280258282350221 -0.824493326392846 10
1.669609881156767 9.260752678472102 -0.823273145994379 20
1.695079148056598 9.217637130348411 -0.819961227769968 24
1.719900653046603 9.172498804643840 -0.816474998060062 22
1.742183659134351 9.115558174127287 -0.811942899437184 24
1.770626680545635 9.083688928871927 -0.809676850125744 48
1.806204022431752 9.096995364942321 -0.811419964980698 54
1.840700228351348 9.112438145591234 -0.813337391321146 66
1.878516960739749 9.135230717289748 -0.815952063603576 58
1.916923286496221 9.159820097089110 -0.818741047371501 32
1.938097393124082 9.102406620369324 -0.814208948748623 16
1.947623727998540 9.000510951825900 -0.805667685959352 14
1.960617940358589 8.909986660152468 -0.798172292083053 12
1.976918821480201 8.836981312734080 -0.792245701576213 12
1.982132100670094 8.717344330890185 -0.782135635417484 12
nan nan nan 0
2.030648682718723 8.650923056356934 -0.777429225309111 60
2.068097921417114 8.680966435496925 -0.780741143533522 88
nan nan nan 0
nan nan nan 0
nan nan nan 0
1.396366232577596 5.522438420346163 -0.498356537031109 2
nan nan nan 0
1.383114751548348 5.309859311068386 -0.480053831054101 13
1.392480139509382 5.270325794109590 -0.476916224315186 24
1.397461149889943 5.215396012992896 -0.472384125692307 28
1.405210106765737 5.172032416660466 -0.468897895982401 30
1.415638937438199 5.146460884897682 -0.466980469641953 30
1.426638213412114 5.116538665501236 -0.464714420330513 29
1.438875838603213 5.088268917295565 -0.462622682504570 31
1.448944648199588 5.056401055814456 -0.460182321707635 33
1.463808329321043 5.041745610086522 -0.459310764280159 35
1.476338583008879 5.019402423151680 -0.457741960910701 38
1.492712834380127 5.010399557768344 -0.457393337939710 40
1.503286926777640 4.982269048206177 -0.455301600113766 33
nan nan nan 0
1.549809477598556 5.009720582063572 -0.458787829823673 1
1.540227539595901 4.920890931940308 -0.451118124461879 1
2.570785393074928 8.113968322211401 -0.744658666035991 31
nan nan nan 0
2.557256108904884 7.879783040856300 -0.724787156689525 93
2.609611387444624 7.946525798784704 -0.731759616109338 70
2.631051681962759 7.918460642999827 -0.730016501254385 23
nan nan nan 0
2.597110972203544 7.637701422525114 -0.705787204770536 2
2.604963676472522 7.573951324626780 -0.700732171691172 23
2.617639784671634 7.525294485909653 -0.697071630495770 10
nan nan nan 0
2.092863829851384 5.887197024496029 -0.546640818513312 63
2.080379337783461 5.787982954281503 -0.538099555724042 53
2.072671760806993 5.703909616416312 -0.530952784818734 76
2.095317450868805 5.704120705672066 -0.531650030760715 72
2.144343344086685 5.775219282577878 -0.538971113151518 40
2.180590223552288 5.810602266150382 -0.542980277317910 68
2.205098941839089 5.814132627393128 -0.544026146230882 61
2.215398135159704 5.780353963188310 -0.541585785433948 25
2.011789797769969 5.194769629476675 -0.487374913444905 16
2.034266702700260 5.198847961005008 -0.488420782357876 33
2.053134152644135 5.193568232488953 -0.488595093843372 13
2.121120699449790 5.316631024012429 -0.500796897828044 8
2.305000746337832 5.719442082229487 -0.539494047608004 12
2.370023035532224 5.822082342117923 -0.549952736737723 8
2.847941662444765 6.926775362771074 -0.655236873976894 10
2.228764362512629 5.367460025918616 -0.508466603189838 12
2.202798944530576 5.253079246686970 -0.498356537031109 2
2.243799470432492 5.296337621226434 -0.503237258624978 2
2.240332472270828 5.237181988024403 -0.498356537031109 2
2.258600000117026 5.229329861604614 -0.498356537031109 2
2.238613942449095 5.133751242761113 -0.489989585727334 5
2.249295721496303 5.109494093999849 -0.488420782357876 9
2.263071946401897 5.092507939972062 -0.487549224930400 7
1.899351918643504 4.238114001259849 -0.406320072689582 1
1.899353167277800 4.198782852816008 -0.403182465950667 4
1.908836266659555 4.176961878085625 -0.401787974066704 9
1.909219322191151 4.139516451874718 -0.398824678813284 13
1.909488851299749 4.104259257772578 -0.396035695045359 18
1.919570033371293 4.088551356082450 -0.395164137617882 22
1.923737677189255 4.062355766477374 -0.393246711277434 24
1.932752219108777 4.044829707018418 -0.392200842364462 24
1.933714933183031 4.009005981732796 -0.389411858596537 25
1.937235079095022 3.980733521898943 -0.387320120770593 24
1.943402783300255 3.959978665451277 -0.385925628886630 25
1.949257694702334 3.937100998237422 -0.384356825517173 25
1.952513608379677 3.911006867169823 -0.382439399176724 24
1.955399871511391 3.882813799166557 -0.380347661350780 28
1.964429726388565 3.867082845845450 -0.379476103923304 34
1.976099293820148 3.856655796690997 -0.379127480952313 46
2.000526320565962 3.870974340906551 -0.381219218778257 40
2.014947262991880 3.865734406608205 -0.381393530263752 30
2.033739242249948 3.867140299661369 -0.382265087691229 27
2.047225690774401 3.860017664955135 -0.382265087691229 27
2.069408306234346 3.870778082306649 -0.384008202546182 27
2.090471129411006 3.877560988588710 -0.385402694430144 27
2.112284325308897 3.883875238175633 -0.386797186314107 28
2.127744735221574 3.879972224654432 -0.387145809285098 28
2.147346086732397 3.885101368285282 -0.388365989683565 28
2.167683704920882 3.889764770715742 -0.389586170082032 27
2.190327179576799 3.899926696382620 -0.391329284936985 28
2.215707576762193 3.913062206651817 -0.393421022762929 27
2.229046731604288 3.903184814019665 -0.393246711277434 27
2.251604582258271 3.910920289976219 -0.394815514646892 27
2.271559925348986 3.915495783907634 -0.396035695045359 27
2.297283507887449 3.928181135281779 -0.398127432871303 24
2.314016862786871 3.925287230683562 -0.398650367327788 25
2.335846960349639 3.930888333245248 -0.400044859211751 22
2.353310904335023 3.927427813494939 -0.400567793668237 21
2.377306135162532 3.936244081939258 -0.402310908523190 7
nan nan nan 0
3.192545458505316 5.205681004677420 -0.534264703043145 63
3.202316939794152 5.180946974749557 -0.532870211159182 63
3.211954747599896 5.156208321934963 -0.531475719275220 76
3.216491294945589 5.127526476179647 -0.529558292934771 76
3.226917640847328 5.104478952648340 -0.528338112536304 76
3.235081347660627 5.078060532224700 -0.526769309166846 76
3.236641841332725 5.041587796276771 -0.524154636884416 76
3.240151752992393 5.008512046480613 -0.521888587572977 70
3.246734504978714 4.980480673729351 -0.520145472718024 70
3.255348908746555 4.955795082749721 -0.518750980834061 70
3.266029988784767 4.934433050457707 -0.517705111921090 70
3.266902725015152 4.900366600728719 -0.515264751124155 72
3.266212984775054 4.862470701809881 -0.512475767356230 70
3.279816106455064 4.846089826316046 -0.511952832899744 68
3.286609850626563 4.819796658798467 -0.510384029530286 68
3.292131905667036 4.791873113471117 -0.508640914675333 66
3.294097380019817 4.759055257787440 -0.506374865363894 58
3.301572296971160 4.734453631653039 -0.504980373479931 60
3.308915711147775 4.709857967749837 -0.503585881595969 54
3.323033957313336 4.695026472776706 -0.503237258624978 56
3.330148786693924 4.670420419614352 -0.501842766741016 54
3.325508847517527 4.629640166197578 -0.498705160002100 48
3.327633042984666 4.598634301632508 -0.496613422176156 48
3.335449606119988 4.575720430821250 -0.495393241777689 44
3.344326087354973 4.554414089252176 -0.494347372864717 36
3.342430998607133 4.518685425068687 -0.491732700582287 28
3.358183791047645 4.506990634195164 -0.491732700582287 18
3.358347758787756 4.474525531085834 -0.489466651270848 11
3.367938568310028 4.454828911906942 -0.488595093843372 7
0.479104188270407 0.629369769746496 -0.069201659741641 12
0.481298179881202 0.627693549697656 -0.069201659741641 12
0.481050607745839 0.622855980235254 -0.068853036770650 16
0.479551810761730 0.616455235935977 -0.068330102314164 21
0.487844861340215 0.622619082226804 -0.069201659741641 24
0.492483826009459 0.624040414791925 -0.069550282712631 33
0.500857869191352 0.630115988767449 -0.070421840140108 44
0.493092861119944 0.615920981543309 -0.069027348256145 49
0.492738611250760 0.611094013778469 -0.068678725285155 53
0.498636761483534 0.614010187526408 -0.069201659741641 57
0.505822631431401 0.618434805388608 -0.069898905683622 60
0.515578962785543 0.625892300711889 -0.070944774596594 69
0.511399898294899 0.616421842782632 -0.070073217169117 68
0.516103464093625 0.617690844016521 -0.070421840140108 80
0.524670528372572 0.623507889381134 -0.071293397567584 85
0.530708160405415 0.626232594914788 -0.071816332024070 100
0.536661384399252 0.629016366257456 -0.072339266480556 94
0.540152234615194 0.628650415136087 -0.072513577966052 97
0.542452725471831 0.626666435704629 -0.072513577966052 90
0.556419904486937 0.638285743743669 -0.074082381335509 84
0.561273463139400 0.639334126395135 -0.074431004306500 84
0.564821412439780 0.638863693525550 -0.074605315791995 60
0.555124114809703 0.623495697667511 -0.073036512422538 65
0.546656620777098 0.609686771919577 -0.071642020538575 52
0.540665549278064 0.598996617018414 -0.070596151625603 58
0.545433406185685 0.600054362849001 -0.070944774596594 54
0.546179394385313 0.596677141090501 -0.070770463111098 50
0.545558076224945 0.591837097432240 -0.070421840140108 48
0.542198662871468 0.584088256125989 -0.069724594198127 52
0.548315964670352 0.586558511664046 -0.070247528654612 56
0.554457068855899 0.588993124193115 -0.070770463111098 62
0.566104654744427 0.597175742243246 -0.071990643509566 63
0.570937242976371 0.598078335260186 -0.072339266480556 65
0.570259898473547 0.593209065540994 -0.071990643509566 45
0.568169770534850 0.586920333957753 -0.071467709053080 33
0.563261201352521 0.577800140556031 -0.070596151625603 34
0.555504489192714 0.565877846450127 -0.069375971227136 28
0.539267359453032 0.545515328298870 -0.067109921915697 8
0.566469651936386 0.569046059781622 -0.070247528654612 4
0.653085675083516 0.651491832191054 -0.080706217784331 2
nan nan nan 0
nan nan nan 0
nan nan nan 0
nan nan nan 0
nan nan nan 0
nan nan nan 0
nan nan nan 0
nan nan nan 0
nan nan nan 0
nan nan nan 0
nan nan nan 0
0.606188327851050 0.556443221204308 -0.071990643509566 3
0.608126984061902 0.554323839017279 -0.071990643509566 3
0.610058230437366 0.552197702569205 -0.071990643509566 3
0.611886029700098 0.550171640404092 -0.071990643509566 3
0.688113020712210 0.614380156855074 -0.080706217784331 2
nan nan nan 0
nan nan nan 0
nan nan nan 0
nan nan nan 0
nan nan nan 0
nan nan nan 0
nan nan nan 0
0.650182881246003 0.548669523969185 -0.074431004306500 3
nan nan nan 0
0.586776929871760 0.487843995077819 -0.066761298944706 4
0.606739222820475 0.501225273523459 -0.068853036770650 4
0.580756692806547 0.476360311126091 -0.065715430031734 4
0.610397061723513 0.496764216069114 -0.068853036770650 4
0.593531099045849 0.479603756687374 -0.066761298944706 4
0.613764261873109 0.492597899076739 -0.068853036770650 4
0.609247301201044 0.485485853713332 -0.068155790828669 8
0.604688243653985 0.478411405286737 -0.067458544886687 8
0.622022602771766 0.488605169774165 -0.069201659741641 12
0.623639455812195 0.486539781973963 -0.069201659741641 16
0.622183699950784 0.481919809556541 -0.068853036770650 28
0.630095125767521 0.484713204543270 -0.069550282712631 45
0.615949085132879 0.470417806328683 -0.067807167857678 46
0.616081277030727 0.466953591731692 -0.067632856372183 56
0.625667644011217 0.470789915490358 -0.068504413799659 46
0.627225399497825 0.468712538252134 -0.068504413799659 42
0.622457103132294 0.461771959680613 -0.067807167857678 38
0.616043792309484 0.453688957341135 -0.066935610430201 39
0.617623709160899 0.451535799177285 -0.066935610430201 35
0.635401462818324 0.460968777404219 -0.068678725285155 24
0.654791123313220 0.471555689400379 -0.070596151625603 23
0.664454360018294 0.475176567199377 -0.071467709053080 26
0.651487083083858 0.462474565310480 -0.069898905683622 24
0.653097451497509 0.460197633448599 -0.069898905683622 16
0.664495870036910 0.464766691643590 -0.070944774596594 11
0.679207313236861 0.471534151648235 -0.072339266480556 7
0.690692738602588 0.475943444901735 -0.073385135393528 7
0.669326371766055 0.457782750893835 -0.070944774596594 7
0.687404781133525 0.466633836751955 -0.072687889451547 10
0.698943542086566 0.470911093363628 -0.073733758364519 10
0.690645721842103 0.461823513507358 -0.072687889451547 10
0.735330480032962 0.488182505397601 -0.077219988074425 6
0.770304570591299 0.507536574974752 -0.080706217784331 2
0.772159611144171 0.504709858560967 -0.080706217784331 2
0.787288883399390 0.510685507477649 -0.082100709668294 2
0.775577147747179 0.499442283255331 -0.080706217784331 2
0.777315801578653 0.496731971013629 -0.080706217784331 2
0.779044984062390 0.494015606249618 -0.080706217784331 2
0.723429903242497 0.455215534048203 -0.074779627277491 3
0.728394515562003 0.454797950428316 -0.075128250248481 3
3.785382780882439 2.345207841168783 -0.389586170082032 4
3.830887414716238 2.354934715574280 -0.393421022762929 12
3.752334973873293 2.288637596589453 -0.384531137002668 4
3.802915420751753 2.301313474364089 -0.388888924140051 3
3.793843643898007 2.277769199898814 -0.387145809285098 3
3.757266225206660 2.238002962762690 -0.382613710662219 1
3.761624848447098 2.222846801351313 -0.382265087691229 1
3.741477166913123 2.194233920077562 -0.379476103923304 1
3.804222377284197 2.213221513139365 -0.385054071459154 1
3.729094369123354 2.152125925609731 -0.376687120155379 1
3.823038945504296 2.188589039605971 -0.385402694430144 1
3.796004371404616 2.155554366341207 -0.381916464720238 3
3.827809083482816 2.155979464439494 -0.384356825517173 1
3.842269017173021 2.146491593676761 -0.385054071459154 1
3.856709269035200 2.136928996307848 -0.385751317401135 1
3.836207260717754 2.108100970977099 -0.382962333633210 1
3.780562320368678 2.060373596054279 -0.376687120155379 5
3.778967494624986 2.042427804692070 -0.375815562727902 13
3.807146642764124 2.040518687167057 -0.377907300553846 31
3.798412139939638 2.018801265775357 -0.376338497184388 12
3.837162584559436 2.022250525085441 -0.379476103923304 22
3.845613173553640 2.010437982498000 -0.379650415408799 31
3.870296222542151 2.006171010868445 -0.381393530263752 45
3.891800992235085 1.999255453147059 -0.382788022147715 43
3.898755985928550 1.985658352357359 -0.382788022147715 43
3.907442009790531 1.972935070179033 -0.382962333633210 45
3.919650010198141 1.961958930944245 -0.383485268089696 40
3.380337717162957 1.677278917560979 -0.330145953528129 43
3.380808394329178 1.662831099700586 -0.329623019071643 46
3.399128461985168 1.657131399825231 -0.330843199470110 46
3.404892221397375 1.645256131437301 -0.330843199470110 46
3.414208396848012 1.635081955022645 -0.331191822441101 45
3.394695870428456 1.611194098723928 -0.328751461644167 43
3.400299305740427 1.599334582833747 -0.328751461644167 42
3.405861309478426 1.587455579556393 -0.328751461644167 42
3.411106775301469 1.576152608080589 -0.328751461644167 42
3.411153135856807 1.561747840617837 -0.328228527187681 42
3.415039735691679 1.548412101220774 -0.328054215702185 42
3.409519251200674 1.531583499787781 -0.327008346789213 43
3.420039833266041 1.522699838667865 -0.327531281245699 43
3.436271947200771 1.515576511191246 -0.328577150158671 35
3.434238356008063 1.500381845575951 -0.327879904216690 43
3.437626218880892 1.487593702512671 -0.327705592731195 38
nan nan nan 0
3.548534985065498 1.506994717247036 -0.337292724433437 1
3.473219305807108 1.460006958567967 -0.329623019071643 6
3.515082406063173 1.463187584338155 -0.333109248781550 5
3.762778147740321 1.552442050800102 -0.356118364866931 2
nan nan nan 0
3.880927254185151 1.568784365051931 -0.366228431025660 11
3.732848269223026 1.493788571021362 -0.351760577729548 6
3.530820802346380 1.397950849694574 -0.332237691354073 8
3.533824024754891 1.384890491632967 -0.332063379868578 18
3.521441636712750 1.367291532238277 -0.330494576499120 26
3.470398729219170 1.333551344766570 -0.325265231934260 15
3.307426477744089 1.257694737465098 -0.309577198239682 16
3.313661251967885 1.246843658775871 -0.309751509725177 22
3.312391796111182 1.233183797044316 -0.309228575268691 18
3.305458610932851 1.217482152194902 -0.308182706355719 13
3.308026589313712 1.204677099094591 -0.308008394870224 16
3.315960509597917 1.194473042113214 -0.308357017841215 16
3.306971996433791 1.178210158625520 -0.307136837442747 18
3.303547965032690 1.164011004883207 -0.306439591500766 18
3.303828093193256 1.151161261340701 -0.306090968529775 19
3.307826267827961 1.139621735863198 -0.306090968529775 19
3.311784137643478 1.128068324454486 -0.306090968529775 18
3.313813441627161 1.115865347178594 -0.305916657044280 19
3.304263387955799 1.100463320667478 -0.304696476645813 18
3.304299597288851 1.087676677749535 -0.304347853674822 19
3.304286846721084 1.074903206022530 -0.303999230703832 19
3.311812427845893 1.064581996245015 -0.304347853674822 18
3.315324499495397 1.053593777036064 -0.304347853674822 18
3.301873875219012 1.036643506149712 -0.302779050305365 18
3.309457346968968 1.025714230323038 -0.303127673276355 20
3.305397083444034 1.011823086009614 -0.302430427334374 21
3.318444627946131 1.003161580850753 -0.303301984761850 21
3.302834568937532 0.985873246523964 -0.301558869906897 19
3.302433525757105 0.973211793545633 -0.301210246935907 20
3.298158210091842 0.959452113154899 -0.300513000993925 19
3.307066492958560 0.950160290013358 -0.301035935450411 21
3.304612537684360 0.936980208976134 -0.300513000993925 19
nan nan nan 0
3.401340389119786 0.938801568316325 -0.308705640812205 2
3.458424311760466 0.941577863555146 -0.313586362406074 2
3.507871484518878 0.941900195413474 -0.317769838057962 2
3.534250221645320 0.935769171897148 -0.319861575883905 3
4.293188917112105 1.120692706750407 -0.388191678198069 9
4.281638428170113 1.101727873422679 -0.386797186314107 1
3.702218639162499 0.938868204359022 -0.334155117694521 1
3.257027953753724 0.813879901188746 -0.293714853059608 2
3.244372053571952 0.798695676990590 -0.292320361175645 3
nan nan nan 0
3.218862391867943 0.768622458502598 -0.289531377407720 1
3.221525774529270 0.757381849227966 -0.289531377407720 1
3.262971696858681 0.755116141675065 -0.293017607117627 2
3.280867788491579 0.748406353794417 -0.294412099001589 1
3.423430111321345 0.768364679404427 -0.306962525957252 2
3.309359104330164 0.730637935870843 -0.296503836827533 1
4.491786430773832 0.975262435265002 -0.402136597037695 4
3.216954797593399 0.686719554241519 -0.287788262552767 1
3.238831584470681 0.679577478240361 -0.289531377407720 1
3.241417092452602 0.667136278621172 -0.289531377407720 1
4.509189361747254 0.911669319205136 -0.402485220008685 9
3.245770385922301 0.645623871434591 -0.289531377407720 1
3.177608020241249 0.620542678060274 -0.283256163929889 1
3.250307232620890 0.622381293957909 -0.289531377407720 1
3.252459946781506 0.611031812656621 -0.289531377407720 1
3.254573030744083 0.599674886125526 -0.289531377407720 1
3.303702157142020 0.596811228100929 -0.293714853059608 3
3.211595121322639 0.568602982458029 -0.285347901755833 1
3.193929559826655 0.553984017560450 -0.283604786900880 1
3.254771534505752 0.552840937948251 -0.288834131465739 3
3.264543113350517 0.542783421423411 -0.289531377407720 1
3.266232205093514 0.532524895104776 -0.289531377407720 1
3.268071164867924 0.521120372711720 -0.289531377407720 1
3.210811839971987 0.500503428976387 -0.284302032842861 1
3.271629601247387 0.498292417901627 -0.289531377407720 1
3.234102543868132 0.479878014941521 -0.286045147697814 1
3.196321511545514 0.462874986035002 -0.282558917987908 1
3.217645829045080 0.454501565399079 -0.284302032842861 1
3.199475070207872 0.440549353630029 -0.282558917987908 1
3.181246353251336 0.426729568504305 -0.280815803132955 1
3.202472690969094 0.418202249471082 -0.282558917987908 1
3.184006544081513 0.405621513183035 -0.280815803132955 1
3.161675632466546 0.391566201919935 -0.278724065307011 1
3.166979443220268 0.381003465702778 -0.279072688278001 1
3.176205877071272 0.370870611351801 -0.279769934219983 1
3.137886326418440 0.355298067963195 -0.276283704510076 1
3.178717619449238 0.348687653508862 -0.279769934219983 1
3.191921021989717 0.337737581697554 -0.280815803132955 1
3.145511330423866 0.321728185845579 -0.276632327481067 1
3.154437248530448 0.312630697131046 -0.277329573423048 1
3.127742420108805 0.298963667079649 -0.274889212626114 2
3.085118957528030 0.284025618309075 -0.271054359945217 3
nan nan nan 0
nan nan nan 0
3.079980840457289 0.251055876895672 -0.270357114003236 52
3.094742917924751 0.241387748487878 -0.271577294401703 44
3.079671585029184 0.229399611131963 -0.270182802517740 33
3.100327470736426 0.220058786823189 -0.271925917372694 7
3.301851570631178 0.222781927042597 -0.289531377407720 1
nan nan nan 0
nan nan nan 0
nan nan nan 0
nan nan nan 0
1.183984766250901 0.059356573402562 -0.103715333869713 1
1.144380216836224 0.053367087171765 -0.100229104159807 1
1.128643704246010 0.048488228284076 -0.098834612275844 1
1.120842725050092 0.044233957898176 -0.098137366333863 1
1.120983247366784 0.040516866266704 -0.098137366333863 1
1.133065818172963 0.036993749931641 -0.099183235246835 1
1.105306443454767 0.032225491470961 -0.096742874449901 1
1.105412197507076 0.028367055641138 -0.096742874449901 1
1.093553082650221 0.024243319852367 -0.095697005536929 1
1.073710625560164 0.020053901987404 -0.093953890681976 1
1.077761244804021 0.016178229730685 -0.094302513652966 1
1.057888579161925 0.012186540645847 -0.092559398798013 3
1.069877108732349 0.008776449581988 -0.093605267710985 1
1.049977553459860 0.004947939278282 -0.091862152856032 1
1.042018876531583 0.001273066851842 -0.091164906914050 1
1.038032203493125 -0.002355224401643 -0.090816283943060 3
1.030048232779643 -0.005932717530232 -0.090119038001079 1
1.022052031703008 -0.009454501398438 -0.089421792059097 3
1.022010514297281 -0.013200445854070 -0.089421792059097 1
1.021958209704484 -0.016767847880542 -0.089421792059097 3
1.013928978752487 -0.019999524050583 -0.088724546117116 1
1.013852990183242 -0.023538674831257 -0.088724546117116 3
1.021736111926140 -0.027112002710862 -0.089421792059097 1
1.001720331482576 -0.030080343385171 -0.087678677204144 1
1.013550908059297 -0.034154233829591 -0.088724546117116 3
0.989533359096121 -0.036803366198386 -0.086632808291172 3
0.993387386516731 -0.040245880845689 -0.086981431262163 3
0.985278999617931 -0.043362798289794 -0.086284185320182 3
0.965220185425696 -0.045856308741312 -0.084541070465228 4
0.969033841684333 -0.049428267406483 -0.084889693436219 4
0.972825003585492 -0.053197197435119 -0.085238316407210 4
0.972633383930148 -0.056592666315119 -0.085238316407210 4
0.984372151673972 -0.060551683481034 -0.086284185320182 3
0.968249257767217 -0.062953274589481 -0.084889693436219 2
0.960072698308960 -0.065787884497694 -0.084192447494238 2
0.935990319523785 -0.067421029580733 -0.082100709668294 4
0.979457307860295 -0.073989601991039 -0.085935562349191 3
0.943441597691865 -0.074581836202792 -0.082797955610275 4
0.927290449497347 -0.076563035234817 -0.081403463726313 5
0.934957738366450 -0.080482923285966 -0.082100709668294 4
0.938639983878320 -0.084101654039883 -0.082449332639285 4
0.942308309740379 -0.087747067990845 -0.082797955610275 4
0.934063674242741 -0.090269185950203 -0.082100709668294 4
0.909953257693390 -0.091146218999573 -0.080008971842350 5
0.933410719085880 -0.096787927798576 -0.082100709668294 4
0.925143042105596 -0.099195905847789 -0.081403463726313 5
0.908983985952014 -0.100352766317222 -0.080008971842350 5
0.924464807821513 -0.105329460232608 -0.081403463726313 5
0.892430984504259 -0.104836546288172 -0.078614479958388 5
0.907883273278983 -0.109865947977387 -0.080008971842350 5
0.915402684938753 -0.114019431755605 -0.080706217784331 5
0.899189186145118 -0.115188791357429 -0.079311725900369 5
0.890880247144508 -0.117286609587851 -0.078614479958388 5
0.894414261765246 -0.120929552743304 -0.078963102929378 5
0.878198845362057 -0.121860159959011 -0.077568611045416 6
0.885658174284763 -0.126047824069312 -0.078265856987397 5
0.861532591584521 -0.125837582651749 -0.076174119161453 6
0.865028994277026 -0.129433801599921 -0.076522742132444 6
0.872472879053533 -0.133507111263130 -0.077219988074425 6
0.860191132300829 -0.134702336583278 -0.076174119161453 6
0.855757130277707 -0.137223278296118 -0.075825496190463 6
0.878866653753058 -0.144077442940021 -0.077917234016406 5
0.843012873893720 -0.141071973806601 -0.074779627277491 6
0.822876253489850 -0.140656813897021 -0.073036512422538 7
0.834156584592700 -0.145583629424127 -0.074082381335509 7
0.853258457886148 -0.151988480396454 -0.075825496190463 6
0.837040463806296 -0.152116033174896 -0.074431004306500 6
0.820832167010261 -0.152132249882764 -0.073036512422538 7
0.828127114831999 -0.156476242789349 -0.073733758364519 7
0.823662977326548 -0.158612489056945 -0.073385135393528 7
0.815283829987263 -0.159952328174301 -0.072687889451547 7
0.810812992683602 -0.162016423304910 -0.072339266480556 7
0.810242510076084 -0.164845701765809 -0.072339266480556 7
0.794054209764207 -0.164440721578261 -0.070944774596594 7
0.813000964713386 -0.171177983695868 -0.072687889451547 7
0.792916510809678 -0.169841825952399 -0.070944774596594 7
0.807892655809687 -0.176001384124746 -0.072339266480556 7
0.780040055717117 -0.172787888641158 -0.069898905683622 8
0.783319603358432 -0.176385043901996 -0.070247528654612 8
0.778814769464256 -0.178229340593993 -0.069898905683622 8
0.797594069907765 -0.185459215303847 -0.071642020538575 7
0.785307649814717 -0.185494146856823 -0.070596151625603 7
0.765217032980249 -0.183853615042959 -0.068853036770650 8
0.764570602134676 -0.186523600862945 -0.068853036770650 8
0.771717363848597 -0.190837806812919 -0.069550282712631 8
0.778776303636152 -0.195470595263664 -0.070247528654612 8
0.774227754295583 -0.197204278510001 -0.069898905683622 8
0.765818609522172 -0.197911565095448 -0.069201659741641 8
0.757448698875773 -0.198430375349550 -0.068504413799659 8
0.749049128307299 -0.199026609701308 -0.067807167857678 8
0.759892503262489 -0.204750196124272 -0.068853036770650 8
0.751485332685064 -0.205301200521911 -0.068155790828669 8
0.743047738602054 -0.205925721754580 -0.067458544886687 8
0.746160698581069 -0.209595801198716 -0.067807167857678 8
0.726261942597276 -0.206744121163541 -0.066064053002725 9
0.744679272325654 -0.214799835557792 -0.067807167857678 8
0.747787877835424 -0.218385159612350 -0.068155790828669 8
0.747021015589307 -0.220994095949277 -0.068155790828669 4
0.883661019621994 -0.264774826619838 -0.080706217784331 2
nan nan nan 0
nan nan nan 0
nan nan nan 0
0.784858822147270 -0.247163865774670 -0.071990643509566 3
0.704263351083164 -0.224488262913274 -0.064669561118762 4
nan nan nan 0
nan nan nan 0
nan nan nan 0
nan nan nan 0
nan nan nan 0
nan nan nan 0
nan nan nan 0
nan nan nan 0
nan nan nan 0
nan nan nan 0
nan nan nan 0
nan nan nan 0
1.145698005082649 -0.423124721840887 -0.106852940608629 1
1.144214044189223 -0.427121376383145 -0.106852940608629 1
nan nan nan 0
nan nan nan 0
4.813422271329399 -1.854450100468279 -0.451292435947374 1
4.691806141643955 -1.826429299179649 -0.440485123846664 3
4.236701173720970 -1.666318962573998 -0.398301744356798 22
4.203085133334281 -1.670062005716425 -0.395687072074368 31
4.182437922671036 -1.678785985231586 -0.394292580190406 31
4.171013191007970 -1.691129334656608 -0.393769645733920 36
4.146646900433717 -1.698127993471176 -0.392026530878966 36
4.111236036729623 -1.700408298678494 -0.389237547111041 37
4.085052425230470 -1.706301792522329 -0.387320120770593 36
4.058878009991005 -1.712033312508096 -0.385402694430144 36
4.043711912224692 -1.722287367313468 -0.384531137002668 34
4.006560012999597 -1.723010982082091 -0.381567841749247 36
3.974935381977412 -1.725876896621207 -0.379127480952313 34
3.954288526612245 -1.733342446625090 -0.377732989068351 36
3.933638163189431 -1.740684961914900 -0.376338497184388 35
3.911165751941531 -1.747091908697850 -0.374769693814930 35
3.896574883913672 -1.755278997099647 -0.373898136387454 35
3.863218314750760 -1.756500168476071 -0.371283464105024 37
3.824162180004882 -1.755684552738470 -0.368145857366108 35
3.812587088905474 -1.766509857335267 -0.367622922909622 38
3.790463325397855 -1.771550778380770 -0.366054119540164 35
3.766236097955179 -1.776272261317110 -0.364311004685211 35
3.751017559527130 -1.785127176504836 -0.363439447257735 37
3.712434557243046 -1.782685682308123 -0.360301840518819 38
3.691844980246085 -1.788683917557177 -0.358907348634856 38
3.674838907085541 -1.796310153704424 -0.357861479721884 38
3.654250868209499 -1.802077101228436 -0.356466987837922 39
3.626532188055302 -1.804172517022074 -0.354375250011978 39
3.594967251314183 -1.804936645905266 -0.351934889215044 38
3.570870576659755 -1.808472572619270 -0.350191774360090 38
3.564536074349209 -1.820926219217478 -0.350191774360090 41
3.543989266661167 -1.826057100292243 -0.348797282476128 41
3.516378592861269 -1.827391818132014 -0.346705544650184 37
3.492331431907447 -1.830405990959671 -0.344962429795231 37
3.471829200502337 -1.835136799963071 -0.343567937911268 37
3.449578471605926 -1.838809658503451 -0.341999134541811 37
3.439628986560126 -1.848953045038937 -0.341650511570820 38
3.412134670514613 -1.849554765192155 -0.339558773744876 40
3.385001152711441 -1.849396440953184 -0.337467035918932 40
3.369799402556046 -1.856394212012099 -0.336595478491456 43
3.350781749453034 -1.861958398289689 -0.335375298092989 41
3.330356432791666 -1.865852848336958 -0.333980806209026 40
3.314067574715321 -1.870430548763623 -0.332934937296054 41
3.293664883183977 -1.874104738358195 -0.331540445412092 40
3.272621464516835 -1.878801852072935 -0.330145953528129 40
3.259145621551971 -1.886221982320330 -0.329448707586148 40
3.246318719528848 -1.892437911188478 -0.328751461644167 41
3.222515512750317 -1.893663991106593 -0.327008346789213 41
3.196368054374426 -1.894847528012853 -0.325090920448765 42
3.176051822296879 -1.897817547663386 -0.323696428564802 42
3.165994382161734 -1.906836586794475 -0.323347805593812 43
3.149100170472730 -1.911672978817350 -0.322301936680840 43
3.129479898833502 -1.913242790309424 -0.320907444796877 45
3.099034974873883 -1.909522699764788 -0.318467083999943 40
3.088965448762877 -1.918226551036589 -0.318118461028952 39
3.072117342315787 -1.922655457010288 -0.317072592115980 39
3.058309746396950 -1.929649744235130 -0.316375346173999 39
3.033061104489418 -1.928554005748190 -0.314457919833551 29
3.009871678039985 -1.927855267513608 -0.312714804978597 30
3.001449888063435 -1.937269472575016 -0.312540493493102 33
2.982977867162620 -1.940130590107946 -0.311320313094635 36
2.972854577638868 -1.948347060498533 -0.310971690123644 37
2.949409706231225 -1.947733060002406 -0.309228575268691 38
2.926005547221468 -1.946979257532897 -0.307485460413738 41
2.910917142783292 -1.951633495906926 -0.306613902986261 40
2.904086936255429 -1.961782602931856 -0.306613902986261 39
nan nan nan 0
