# This PCD file was generated using the MATLABÂ® pcwrite function
# from Computer Vision ToolboxÂ®.
# .PCD v.7 - Point Cloud Data file format
VERSION .7
FIELDS x y z intensity
SIZE 8 8 8 1
TYPE F F F U
COUNT 1 1 1 1
WIDTH 883
HEIGHT 1
VIEWPOINT 0 0 0 1 0 0 0
POINTS 883
DATA ascii
-2.901561643648493 1.230444694701992 -0.165172277902731 18
-2.882560705410995 1.234276233023621 -0.164334902602844 17
-2.884169534986317 1.245701740845767 -0.164648918340301 20
-2.892619053965892 1.261350041752164 -0.165381621727703 25
-2.888198497832398 1.271439481970493 -0.165381621727703 30
-2.894693671746776 1.286379936796557 -0.166009653202618 33
-2.888589512193451 1.295154881560165 -0.165904981290132 36
-2.885870570220854 1.306053539092755 -0.166009653202618 34
-2.897182159418329 1.324599058159369 -0.166951700414991 37
-2.901608321220015 1.338888066461242 -0.167475059977420 31
-2.898963174649745 1.349345598979143 -0.167579731889906 35
-2.892427650767598 1.358607518513199 -0.167475059977420 31
-2.902105941870558 1.375539176574271 -0.168312435277307 32
-2.909899300100450 1.391693143034319 -0.169045138664709 26
-2.883681146986870 1.390922668081600 -0.167789075714878 31
-2.905746671390726 1.414089727889252 -0.169359154402166 35
-2.899000048026621 1.423343824133437 -0.169254482489680 35
-2.902962702826065 1.437887001940317 -0.169777842052110 32
-2.899965329403370 1.448398087442632 -0.169882513964596 35
-2.916295814969878 1.469295854169907 -0.171138576914426 25
-2.907588209409275 1.477656929662503 -0.170929233089455 33
-2.920186009890031 1.496908126607147 -0.171975952214313 18
-2.930910464538496 1.515347885580407 -0.172917999426686 40
-3.099155780919069 1.616069322376545 -0.183175846850303 20
-3.094063464051387 1.625797616418785 -0.183175846850303 20
-3.081310390873140 1.632847235922035 -0.182757159200360 19
-3.050930814380428 1.630414200860153 -0.181291752425557 19
-3.034671754926732 1.635369059198007 -0.180663720950642 20
-3.018415407275115 1.640230343469843 -0.180035689475727 20
-3.002162226340379 1.644998133429227 -0.179407658000811 20
-2.979207099306376 1.645289164531809 -0.178360938875953 20
-2.947271118904418 1.641103879535251 -0.176790860188664 21
-2.929333598029131 1.644537684846852 -0.176058156801263 19
-2.923575243729407 1.654752948230122 -0.176058156801263 16
-2.928189523186967 1.670887221559407 -0.176686188276178 6
-2.950039096428770 1.697032912180849 -0.178360938875953 2
-2.944097373444478 1.707320131422521 -0.178360938875953 2
-2.945016772345802 1.721618440811196 -0.178779626525896 2
-2.956196457524147 1.742027838449080 -0.179826345650755 2
-2.967269332952710 1.762536138681149 -0.180873064775614 2
-2.964835793268427 1.774417617205653 -0.181082408600586 2
-2.941521985101079 1.774439506346160 -0.180035689475727 2
-2.942136417160492 1.788846980765603 -0.180454377125670 2
-2.963121344234127 1.815803095100928 -0.182129127725445 2
-2.946569215012790 1.819838238195573 -0.181501096250529 18
-2.946981308194647 1.834334310145501 -0.181919783900473 14
-2.943944176401250 1.846732700492179 -0.182129127725445 12
-2.947609181946442 1.863401172927087 -0.182757159200360 12
-2.954890981899329 1.881748211635036 -0.183594534500247 14
-2.956708969317916 1.897444774384993 -0.184117894062676 14
-2.971870297947433 1.921853431037326 -0.185478628924993 16
-3.060523575564810 1.994369144110314 -0.191444927936689 13
-3.036848130433449 1.994077720341941 -0.190398208811830 10
-3.021540606728787 1.999155797708510 -0.189874849249400 12
-2.997925629431432 1.998611982769998 -0.188828130124541 13
-2.984299131448775 2.004609831368812 -0.188409442474598 15
-2.972321416672485 2.011656408642053 -0.188095426737140 11
-2.990033247843114 2.038897783814788 -0.189665505424428 3
-2.996785801712671 2.057324357287661 -0.190502880724316 2
-3.006012439572701 2.079133945644628 -0.191549599849174 2
-3.015123132831820 2.101032877367721 -0.192596318974033 2
-2.994693525977497 2.102364191330665 -0.191758943674146 1
-2.939685073041030 2.079872863340506 -0.188723458212055 5
-3.018606483142158 2.151561677354098 -0.194271069573807 2
-3.011077740944468 2.162085472296460 -0.194271069573807 1
-2.964673788468434 2.144489178216855 -0.191758943674146 6
-2.999138633231968 2.185406330058491 -0.194480413398779 5
-2.985051628915139 2.191134596347393 -0.194061725748836 7
-3.009503455942840 2.225290115985959 -0.196155163998553 2
-3.006522719611902 2.239360845837782 -0.196469179736011 8
-3.007462806236938 2.254785446237001 -0.196992539298441 12
-3.010730570747176 2.273695265151689 -0.197725242685842 8
-2.982110605192779 2.268471141201488 -0.196364507823525 12
-2.993198562288224 2.293443802826422 -0.197620570773356 13
-3.000986020589252 2.316080787052211 -0.198667289898215 8
-3.013382306240532 2.342477292471987 -0.200028024760531 7
-3.006348815628821 2.354737714160449 -0.200132696673017 8
-3.012223378241388 2.376350829938092 -0.201074743885390 7
-3.009018369270530 2.390053351055179 -0.201388759622848 8
-2.997538007916039 2.398046858123912 -0.201179415797876 12
-3.009790128718348 2.424260891166654 -0.202540150660193 16
-3.004411671062211 2.437268789705227 -0.202749494485164 16
-3.008259013262142 2.457850706527597 -0.203586869785051 17
-3.008914639401311 2.475950921747009 -0.204214901259967 16
-3.011018247379457 2.495360012763137 -0.204947604647368 17
-2.974689261621934 2.482818762537294 -0.203063510222622 11
nan nan nan 0
-2.965991460159552 2.511785901326283 -0.203691541697537 10
-2.872106178973429 2.449544737618128 -0.197829914598328 8
-2.852932477372796 2.450445871445520 -0.197097211210926 7
-2.834215389084905 2.450748479208245 -0.196364507823525 12
-2.831668239468977 2.465873345401567 -0.196783195473469 13
-3.038239902138486 2.663526927386463 -0.211751278958951 6
-3.042399141149148 2.686012847128082 -0.212693326171324 5
-3.044945634539007 2.707233038035525 -0.213530701471211 5
-3.062260698118980 2.741826377155372 -0.215414795895957 5
-3.043771365382108 2.744474179348291 -0.214786764421041 5
-3.038608744181143 2.759110101855506 -0.215100780158499 13
-3.048606854500112 2.786689193148353 -0.216461515020816 23
-3.043269326359097 2.801371838315348 -0.216775530758273 22
-3.045190076280373 2.822840063205931 -0.217612906058160 16
-3.042617920304437 2.840267022775043 -0.218136265620590 11
-3.048692455954864 2.865918218065787 -0.219287656657935 11
-3.044471717281712 2.882034886142535 -0.219706344307878 11
-3.051309831133351 2.906738752479682 -0.220857735345223 12
-3.056999139308727 2.932581151489000 -0.222009126382568 19
-3.060592394343697 2.957645057384421 -0.223055845507427 5
-3.037367309543092 2.955774228104355 -0.222113798295054 8
-3.022751729875688 2.962164890074646 -0.221799782557596 9
-3.010971818304129 2.971295338281669 -0.221695110645110 27
-2.952925760558421 2.933405874108043 -0.218136265620590 20
-2.941256244036524 2.942283115381875 -0.218031593708104 28
nan nan nan 0
-3.042629322982850 3.086489123441754 -0.227138050094376 2
-3.063120423755902 3.127955590174360 -0.229440832169066 2
nan nan nan 0
-3.032044665161282 3.138677705706051 -0.228708128781665 45
-3.037661852815340 3.166538005215121 -0.229964191731495 28
-3.045876484233450 3.197367789874804 -0.231429598506298 27
-3.052540116524360 3.226842341624327 -0.232790333368614 24
-3.054932457662115 3.252035041632189 -0.233837052493473 30
-3.053098801557813 3.272902188815338 -0.234569755880874 27
-3.055021713426333 3.295660255714687 -0.235511803093247 34
-3.054320430186412 3.318059941534929 -0.236349178393134 20
-3.068322675434625 3.356710738731506 -0.238337944730366 30
-3.067325871559086 3.379231741676311 -0.239175320030253 12
-6.346262173980335 7.038350452601412 -0.496668224745537 8
nan nan nan 0
nan nan nan 0
nan nan nan 0
-3.988571300142830 4.551297740430755 -0.317155894832240 5
-4.064437630415401 4.670659223004976 -0.324482928706252 1
nan nan nan 0
nan nan nan 0
nan nan nan 0
nan nan nan 0
nan nan nan 0
nan nan nan 0
nan nan nan 0
nan nan nan 0
nan nan nan 0
nan nan nan 0
nan nan nan 0
nan nan nan 0
nan nan nan 0
nan nan nan 0
nan nan nan 0
nan nan nan 0
nan nan nan 0
nan nan nan 0
-7.613834258414935 10.012700334693395 -0.659223704836120 1
-7.518668424390039 9.959514951097434 -0.653990109211826 1
-7.473619348366855 9.968412850853356 -0.652943390086967 1
-7.431622598104403 9.984826800313703 -0.652315358612052 3
-7.389602407964316 10.001069136840162 -0.651687327137137 3
-7.333384108023028 9.997814225267030 -0.649803232712391 1
-7.227901494492529 9.926476426203244 -0.643522917963237 1
-7.162787389396129 9.909560349392050 -0.640801448238604 1
-7.139796434029562 9.950730315442728 -0.641848167363463 1
-7.093431617082573 9.959324143620821 -0.640801448238604 1
-7.030952037704823 9.944883920111005 -0.638289322338943 1
-6.991605906057255 9.962826501941443 -0.637870634688999 3
-4.223844807774787 6.063756635536860 -0.387286076197784 1
nan nan nan 0
-6.951453622136181 10.121995198247520 -0.643522917963237 1
-6.949826859895067 10.195708385613806 -0.646663075337814 4
-6.970153052540815 10.302617781639018 -0.651896670962108 4
-6.978683050473900 10.393210921547709 -0.656083547461544 4
nan nan nan 0
nan nan nan 0
nan nan nan 0
nan nan nan 0
nan nan nan 0
-1.145586327684402 1.785119343613204 -0.111161571060013 2
-4.274164695070689 6.711679402444084 -0.417012899343776 5
-4.245375795131054 6.718116166111456 -0.416489539781347 10
nan nan nan 0
-4.178323906955036 6.715370312751356 -0.414500773444115 42
-4.148562195753173 6.719717632566304 -0.413872741969200 40
-4.119864390620495 6.725642251187701 -0.413349382406770 38
-4.089237790717655 6.725614628787413 -0.412512007106883 36
-4.054387941825823 6.721035698515837 -0.411360616069538 42
-4.023574627220739 6.725566887864376 -0.410732584594623 40
-3.997015344480148 6.734418232804336 -0.410418568857166 36
-3.967565432713324 6.735589508630452 -0.409685865469764 42
-3.949068027758710 6.758019983976994 -0.410209225032194 49
-3.949493601501648 6.813233988216060 -0.412721350931855 35
-3.959537626386775 6.885846976493298 -0.416280195956375 35
-3.973080666160609 6.965551913646672 -0.420257728630839 30
-3.980214064634993 7.035004542608142 -0.423607229830387 30
-3.990105999916766 7.107378367156295 -0.427166074854908 32
-3.998308149370974 7.180592453695484 -0.430724919879428 32
-4.098739732064281 7.421792333659367 -0.444332268502593 17
-4.084321109024734 7.457075037657082 -0.445588331452424 21
-4.061126124384137 7.476551725134738 -0.445902347189881 24
-3.977225129816614 7.383421209476639 -0.439517360528242 4
-3.977777076104306 7.446586140378305 -0.442448174077847 8
-3.941475669346689 7.441011402842102 -0.441296783040502 14
-3.923836147076295 7.470638172734241 -0.442238830252875 14
-3.899579929598294 7.487832262138979 -0.442448174077847 4
-3.854946669623470 7.459236846958341 -0.440040720090672 32
-3.836171764503725 7.486867749481697 -0.440878095390559 32
-3.804586976861534 7.489528811395139 -0.440250063915644 27
nan nan nan 0
-3.485140724065716 6.984004712334187 -0.409057833994849 3
-3.448343024747162 6.971064681736246 -0.407592427220047 3
-3.416954071258083 6.968712879911917 -0.406755051920159 3
-3.378639371658111 6.951856294959201 -0.405080301320385 3
-3.350885250035220 6.956410066946746 -0.404661613670442 5
-3.330024318250756 6.975274044031587 -0.405080301320385 1
-3.292707965784214 6.953209551768603 -0.403196206895639 3
-3.268416674718263 6.964660886157241 -0.403196206895639 5
-3.236600969029126 6.966291483380389 -0.402568175420724 5
-3.212264355323106 6.977546888101796 -0.402568175420724 5
-3.187009855691540 6.980336665893033 -0.402149487770780 5
-3.165917202873744 6.998697816643215 -0.402568175420724 3
-3.133299757317100 6.991480326149151 -0.401521456295865 3
-3.102392269077977 6.987771495691714 -0.400684080995978 5
-3.084797481034788 7.017379344544208 -0.401730800120837 35
-3.074636016270553 7.061065952414896 -0.403614894545583 5
-3.068161810523382 7.113936530286015 -0.406022348532758 8
-3.080969757857139 7.212765214778945 -0.411046600332081 15
-3.097514637653818 7.318586170345544 -0.416489539781347 15
-3.107462996175125 7.414086342207218 -0.421304447755698 14
-3.131113373510281 7.540557517704099 -0.427898778242309 13
-3.138949644670140 7.634566167698592 -0.432609014304174 6
-3.159721922671901 7.762017894420958 -0.439203344790785 3
-3.959061283543602 9.823693873939437 -0.555075151912662 8
-3.975812917659654 9.965453785436042 -0.562297513874188 9
nan nan nan 0
-4.278435376821853 10.945386919127976 -0.615889533066963 39
-4.238761515398823 10.956529319093196 -0.615680189241991 43
-4.196919635874814 10.961932477665924 -0.615156829679562 43
-4.157214559709644 10.972780262731012 -0.614947485854590 45
-4.118700410649992 10.980895620336410 -0.614633470117132 43
-4.102581050938285 11.055125045319240 -0.617982971316681 11
-4.120410447457963 11.223119740372288 -0.626566068140524 6
-4.145297831919700 11.413899170334618 -0.636405227914197 6
-4.159449458186897 11.578671783523420 -0.644778980913068 4
-0.645935190259403 1.818012067499306 -0.101113067461367 2
-0.631953789152244 1.797533584394491 -0.099857004511537 2
-0.627642908551911 1.805388087378106 -0.100171020248994 9
nan nan nan 0
-0.619522335329543 1.822963113884683 -0.100903723636396 40
-0.607430753905035 1.808075093146537 -0.099961676424023 37
-0.598597931279919 1.802602482538323 -0.099542988774079 40
-0.588254934842141 1.791294687966129 -0.098810285386678 39
-0.585697709079908 1.804735497162474 -0.099438316861593 13
nan nan nan 0
-0.570356750847815 1.801264081081148 -0.099019629211650 1
-0.566450746801496 1.810868734223373 -0.099438316861593 2
-0.554230119182119 1.793752510377668 -0.098391597736734 2
-0.551778425907025 1.807041693413396 -0.099019629211650 2
-0.548926935180602 1.820430049068881 -0.099647660686565 2
-0.536869848906518 1.803192895853973 -0.098600941561706 3
-0.531135500469220 1.806972130944469 -0.098705613474192 5
-0.519815822871800 1.791551784181491 -0.097763566261819 6
-0.514658671220453 1.797195526654438 -0.097972910086791 7
-0.498605572776786 1.764385281705954 -0.096088815662045 25
nan nan nan 0
-0.497185290825349 1.806251098713499 -0.098182253911763 64
-0.486690682333743 1.792555760454206 -0.097344878611876 55
-0.482496897816193 1.801960884345030 -0.097763566261819 51
-0.476203940968860 1.803634134661877 -0.097763566261819 50
-0.471227151935040 1.809068898679184 -0.097972910086791 51
-0.464909452146560 1.810702766937166 -0.097972910086791 52
-0.455646433175539 1.800697171248527 -0.097344878611876 51
-0.449358051092332 1.802276703651951 -0.097344878611876 48
-0.445286021964023 1.811515013394928 -0.097763566261819 47
-0.439899898732564 1.816940667161205 -0.097972910086791 43
-0.434018111893162 1.820407939572301 -0.098077581999277 13
-0.425378982071668 1.812189806641791 -0.097554222436847 4
-0.415453666165471 1.798095687873578 -0.096716847136960 4
-0.412717247136457 1.815115326253637 -0.097554222436847 4
-0.403762625321093 1.804850424799637 -0.096926190961932 4
-0.397889284300325 1.808199416294790 -0.097030862874418 5
-0.388821964513023 1.793825045220543 -0.096193487574531 6
-0.386304465012230 1.812751926821008 -0.097135534786904 6
-0.378839574307844 1.810245809398233 -0.096926190961932 7
-0.372116041578519 1.809600852411628 -0.096821519049446 9
-0.365401632431636 1.808931037518064 -0.096716847136960 11
-0.358307818207127 1.806277334524279 -0.096507503311988 21
-0.348182757347273 1.787912751274074 -0.095460784187130 50
-0.344939126589226 1.804811254238868 -0.096298159487017 71
-0.337792376055600 1.798034326023548 -0.095879471837073 68
-0.334409325882908 1.814916046058997 -0.096716847136960 56
-0.328072049282169 1.816072295356020 -0.096716847136960 55
-0.321034388267676 1.813273069163629 -0.096507503311988 58
-0.314702928211256 1.814382641225314 -0.096507503311988 61
-0.309036543867084 1.819408218634448 -0.096716847136960 52
-0.303020475518931 1.824469211831730 -0.096926190961932 51
-0.294727904868175 1.813687439051015 -0.096298159487017 58
-0.289028592683640 1.814604402367284 -0.096298159487017 57
-0.284536328312986 1.827443129450483 -0.096926190961932 46
-0.278136542658690 1.830448326309081 -0.097030862874418 20
-0.268813941372626 1.811651762638830 -0.095984143749559 21
-0.262488458876957 1.812579061201211 -0.095984143749559 20
-0.255042396240542 1.805573764685441 -0.095565456099615 21
-0.249599067290999 1.810366673717473 -0.095774799924587 23
-0.244873454460682 1.823103805436940 -0.096402831399503 26
-0.237213310249725 1.814045471403793 -0.095879471837073 28
-0.230375560601687 1.810899866829640 -0.095670128012101 30
-0.223387211745937 1.803725399482225 -0.095251440362158 31
-0.217566794339245 1.808460098725798 -0.095460784187130 32
-0.213249901022755 1.829083590631733 -0.096507503311988 38
-0.207312637259257 1.833786062198232 -0.096716847136960 34
-0.199923752469778 1.822551352555825 -0.096088815662045 42
-0.193560643007746 1.823238113078787 -0.096088815662045 40
-0.188418672946639 1.835823590426083 -0.096716847136960 33
-0.181615345287337 1.832495066340057 -0.096507503311988 35
-0.175977800613380 1.841070646986934 -0.096926190961932 31
-0.167536097476052 1.819796374252323 -0.095774799924587 33
-0.161006645931852 1.818380622029371 -0.095670128012101 28
-0.154319911274507 1.814951405318227 -0.095460784187130 30
-0.148632659327353 1.823441652332622 -0.095879471837073 28
-0.142577380723830 1.827931790305808 -0.096088815662045 28
-0.135602393479548 1.820451377403079 -0.095670128012101 28
-0.128398557548324 1.808960146135156 -0.095042096537186 33
-0.122714917369808 1.809354594583587 -0.095042096537186 51
-0.117680263655709 1.829703335257000 -0.096088815662045 65
-0.111215047094091 1.834109559917093 -0.096298159487017 66
-0.103900722555983 1.818534541474185 -0.095460784187130 68
-0.097869673418215 1.818869089766328 -0.095460784187130 71
-0.091720741040725 1.823189110396694 -0.095670128012101 68
-0.085356064598156 1.823498168039240 -0.095670128012101 68
-0.079508884320971 1.835757337393330 -0.096298159487017 62
-0.072305841293316 1.816066911879571 -0.095251440362158 65
-0.066111124782097 1.820300128512445 -0.095460784187130 65
-0.060601397198045 1.836478732557788 -0.096298159487017 61
-0.054190520906762 1.836679082453782 -0.096298159487017 57
-0.047830917999695 1.838853636748033 -0.096402831399503 16
-0.041231973610638 1.831022383397001 -0.095984143749559 8
-0.034764274053164 1.827161359308192 -0.095774799924587 8
-0.028386078872599 1.827271577578342 -0.095774799924587 7
-0.022103745632212 1.835347988087620 -0.096193487574531 7
-0.015662889761160 1.831419590927484 -0.095984143749559 7
-0.009229510976925 1.823474173035527 -0.095565456099615 8
-0.002861204758936 1.821498024206918 -0.095460784187130 8
0.010103809708967 1.809061356501841 -0.158274828829747 20
0.016599371780764 1.828938139619655 -0.160017943684700 19
0.022958419712515 1.826876822396537 -0.159843632199205 21
0.029335270007503 1.826785552597500 -0.159843632199205 29
0.035672818736226 1.824680015242737 -0.159669320713710 31
0.042133717875065 1.828528098640255 -0.160017943684700 28
0.048674765100787 1.834344949481433 -0.160540878141186 24
0.054957923600343 1.830180883961207 -0.160192255170196 20
0.060905499833582 1.835973079299716 -0.160715189626682 15
0.067021836657349 1.827785088873962 -0.160017943684700 14
0.073561505260371 1.831521572147840 -0.160366566655691 10
0.080214980880902 1.837225115568082 -0.160889501112177 9
0.087378439776617 1.852855340786062 -0.162283992996140 9
0.093442376205457 1.844579693454727 -0.161586747054158 8
nan nan nan 0
0.106088210147173 1.839904225499227 -0.161238124083168 30
0.113239822887038 1.851454738342188 -0.162283992996140 29
0.120473357013948 1.862977596875105 -0.163329861909111 20
nan nan nan 0
0.774647178188201 10.806885408546727 -0.947905858123530 3
0.811076002601220 10.812204394523890 -0.948603104065512 5
0.829783820728200 10.566981816420578 -0.927337102835083 5
0.826915145251808 10.079505705981070 -0.884805100374226 5
0.922895902608346 10.787237041891581 -0.947208612181549 3
0.953474136622003 10.704568512921609 -0.940236152761736 5
0.967689062374985 10.451203220176151 -0.918272905589326 7
0.990630943770484 10.306950923473742 -0.905896790119159 8
0.906302485966323 9.096043424708112 -0.799741095452511 2
1.056633061079997 10.242309637137815 -0.900841757039795 28
1.021146040649717 9.570912934384166 -0.842098786427873 9
nan nan nan 0
1.167883969377575 10.266316396056236 -0.903979363778710 31
1.206034067817551 10.281965406426981 -0.905722478633664 19
1.239288321790024 10.255934910232424 -0.903805052293215 39
1.279753092069232 10.289112441077615 -0.907116970517626 35
nan nan nan 0
1.221111418907466 9.300347443624814 -0.820658473711949 4
1.256230884791726 9.315773483249689 -0.822401588566902 6
1.295297049250522 9.358697488743468 -0.826585064218790 8
1.326836942225243 9.346228599834713 -0.825887818276809 8
1.359453284769552 9.341540134161564 -0.825887818276809 8
1.396753959597528 9.368267563114408 -0.828676802044734 8
1.430048172447979 9.367274046869543 -0.829025425015725 6
1.467043135494116 9.389784293881439 -0.831465785812659 6
1.175952174922785 7.358160798349103 -0.651924955752483 2
1.194561374523774 7.310752241787198 -0.648090103071586 4
1.219453754794595 7.310681210289890 -0.648438726042577 2
nan nan nan 0
1.269095718087741 7.294138128201882 -0.647741480100596 4
1.911863952665295 10.765789690569630 -0.956621432398296 5
1.949431923955225 10.759050451082592 -0.956621432398296 7
1.987700258702201 10.756098548948019 -0.956970055369287 3
1.504354099377692 7.984482328653129 -0.710842237849900 2
1.322560138707886 6.887376760810018 -0.613576428943513 2
1.614381995286728 8.251440574274243 -0.735594468790235 2
2.006075337134547 10.066855465246295 -0.898052773271870 3
1.387479212246780 6.838002769809949 -0.610438822204598 4
2.220583248587057 10.751136393914200 -0.960456285079193 5
2.225312734845656 10.587336750368955 -0.946511366239568 5
2.264755609743658 10.591194517817369 -0.947557235152540 3
2.322536549348035 10.696954768388137 -0.957667301311268 3
2.352989190300105 10.657653835109135 -0.954878317543343 5
2.381119084266791 10.600359363145067 -0.950520530405960 8
2.405690271171605 10.537595535565982 -0.945639808812091 12
2.255718625470572 9.731836689381824 -0.873997788273516 28
2.252686161666824 9.566816080735292 -0.859878557948395 7
2.227446177905183 9.306599026306614 -0.837218064834004 20
2.292855262968557 9.434289407768530 -0.849419868818676 3
2.358705255190887 9.559700516376724 -0.861447361317853 11
nan nan nan 0
2.424404992400266 9.539138818344250 -0.861098738346863 31
2.458185538210151 9.532547224817034 -0.861273049832358 16
2.356186386572223 9.019719548819687 -0.815603440632585 18
2.378981763012663 8.978699113199600 -0.812640145379165 28
2.397383484459577 8.922236718323248 -0.808282358241782 26
2.414372719258390 8.861911197257754 -0.803575948133408 22
2.435690918341190 8.812674343923840 -0.799915406938007 42
2.466975520882865 8.806037032731449 -0.800089718423502 42
2.505317551790526 8.824204974763266 -0.802530079220436 48
2.537206208261101 8.819235479695999 -0.802878702191427 60
2.572009841663183 8.829902213836839 -0.804621817046380 18
2.570111918719956 8.710036268750839 -0.794511750887652 26
2.592512466750997 8.674286484935832 -0.792071390090717 14
2.599687769444812 8.588906052021903 -0.785098930670905 12
2.613567418492154 8.532612297285645 -0.780741143533522 10
2.648647329484560 8.540564060469951 -0.782309946902980 6
2.679636927237885 8.535068336058355 -0.782658569873970 6
2.697948325961193 8.489585244698695 -0.779346651649559 14
2.717195098228437 8.447872139306703 -0.776383356396139 20
2.417979744360395 7.428539521522327 -0.683475334627135 4
2.752208225829005 8.361051329222306 -0.770108142918308 8
2.307951106159596 6.929879622566339 -0.639025905825830 8
2.335880801758821 6.928925975147002 -0.639723151767811 8
2.358123837367685 6.915072743639612 -0.639200217311325 10
2.381691395262701 6.909098516424372 -0.639374528796820 6
nan nan nan 0
nan nan nan 0
3.005973717491961 8.427788481541880 -0.782832881359466 60
3.033229191204315 8.415899609467122 -0.782658569873970 56
3.056448866433053 8.388412430462752 -0.781089766504512 62
3.067807119925504 8.329082642367563 -0.776557667881634 16
2.004792599028075 5.384970653880861 -0.502714324168492 2
3.065537391779279 8.147093984157395 -0.761566880129037 34
nan nan nan 0
3.089465414483322 8.039943036663704 -0.753548551796253 63
3.097319161900527 7.977105395401510 -0.748667830202384 65
3.106227359145739 7.918021066294352 -0.744135731579505 70
3.114761041166080 7.858972332471426 -0.739603632956627 80
3.125882787181526 7.807359675509628 -0.735768780275730 63
3.103814052845121 7.674495401116240 -0.724264222233039 51
2.973349050282568 7.282335979024625 -0.688181744735509 46
nan nan nan 0
nan nan nan 0
3.153719407398548 7.498738118711016 -0.711713795277377 63
nan nan nan 0
nan nan nan 0
2.411981956595832 5.571093523593692 -0.531127096304229 63
2.373960181233920 5.431196120185973 -0.518576669348566 52
2.388882443064801 5.413762286091580 -0.517705111921090 78
2.413440314216015 5.418130525440298 -0.518925292319557 52
2.481361024009229 5.518702389938489 -0.529383981449276 82
2.501433154568228 5.511821494534349 -0.529558292934771 76
2.515679504886371 5.492187837861089 -0.528512424021799 55
2.553228097565728 5.523160024731143 -0.532347276702696 59
2.574775513182931 5.524140904397935 -0.533218834130173 44
2.613546757313684 5.556586670356308 -0.537227998296565 10
3.221863909140030 6.785229633295792 -0.657154300317343 34
2.667876615816572 5.568288042940300 -0.540191293549985 44
nan nan nan 0
2.026449936245711 4.156679220372800 -0.404576957834629 7
2.021439329588101 4.108107165042092 -0.400567793668237 12
2.032223438712782 4.093887570538241 -0.399870547726256 16
2.034903956191501 4.063609301091393 -0.397604498414817 18
2.038296318845445 4.035140861579988 -0.395512760588873 19
2.040610334856408 4.004923280831570 -0.393246711277434 22
2.040006220871802 3.969422802100132 -0.390457727509509 22
2.043992200281044 3.944945732845900 -0.388714612654555 22
2.048522598712944 3.920128597693334 -0.386971497799602 22
2.052904759044016 3.895328117536221 -0.385228382944649 22
2.053398601038759 3.863507669896917 -0.382788022147715 22
2.057460262983019 3.838755793857184 -0.381044907292761 22
2.064216227469397 3.819281155281931 -0.379824726894294 19
2.068001078131295 3.794557923590775 -0.378081612039341 12
2.063002770869714 3.754140013902217 -0.374769693814930 5
2.073509962267161 3.743792368453000 -0.374421070843939 2
2.072966014267260 3.712178101202289 -0.371980710047005 1
nan nan nan 0
nan nan nan 0
nan nan nan 0
nan nan nan 0
nan nan nan 0
0.485671098801297 0.828468790366153 -0.084018136008742 2
nan nan nan 0
nan nan nan 0
nan nan nan 0
nan nan nan 0
nan nan nan 0
nan nan nan 0
nan nan nan 0
0.508471769545404 0.814673807359106 -0.084018136008742 2
0.458144540957844 0.728648820617194 -0.075302561733977 3
0.439357189894490 0.693385660467986 -0.071816332024070 3
0.441654123869980 0.691924887052958 -0.071816332024070 3
0.435444047345263 0.676973593327582 -0.070421840140108 4
0.431302426669522 0.665418057588816 -0.069375971227136 4
0.442338572497146 0.677253371222490 -0.070770463111098 3
0.449081213186562 0.682362389442435 -0.071467709053080 3
0.447055875090334 0.674148786321133 -0.070770463111098 3
0.458381361983541 0.685757060668481 -0.072164954995061 7
0.438512776423592 0.651101971742122 -0.068678725285155 8
0.449501407907923 0.662913439692065 -0.070073217169117 8
0.449564844903437 0.658050097781966 -0.069724594198127 8
0.447567373053624 0.649755855510825 -0.069027348256145 8
0.463464011986814 0.667831704239874 -0.071119086082089 7
0.447302530468607 0.640240145065988 -0.068330102314164 8
0.454121748889600 0.645191957775495 -0.069027348256145 8
0.458676027103814 0.646853365745710 -0.069375971227136 8
0.463247409355855 0.648490800774379 -0.069724594198127 8
0.470163324849848 0.653338512868648 -0.070421840140108 8
0.456069318338694 0.629109923094838 -0.067981479343173 8
0.463073310023287 0.633869341613304 -0.068678725285155 12
0.462921262560256 0.629039666306788 -0.068330102314164 12
0.465114200486934 0.627419937221584 -0.068330102314164 12
0.476838235861082 0.638563840022905 -0.069724594198127 12
0.469374104684294 0.624239494881214 -0.068330102314164 17
0.475159050487969 0.627362045446512 -0.068853036770650 20
0.480861429051441 0.630535693412274 -0.069375971227136 24
0.475777176074197 0.619373131355081 -0.068330102314164 34
0.483030985892771 0.623843162870431 -0.069027348256145 41
0.474178260710193 0.608013422377851 -0.067458544886687 43
0.477316244601888 0.608087986543140 -0.067632856372183 39
0.490556897031083 0.620484537328883 -0.069201659741641 28
0.485273156712864 0.609416730612518 -0.068155790828669 34
0.486150920813304 0.606164829612120 -0.067981479343173 42
0.489621589725230 0.605928615475005 -0.068155790828669 38
0.486703168655056 0.598034589587341 -0.067458544886687 48
0.494997388966902 0.604122985851131 -0.068330102314164 46
0.500907516916923 0.607001580577499 -0.068853036770650 37
0.508117202939587 0.611378496719866 -0.069550282712631 28
0.503854128604069 0.601962000280616 -0.068678725285155 20
0.512479089060245 0.607726864183717 -0.069550282712631 20
0.514597329500792 0.605934275846190 -0.069550282712631 20
0.519193343523675 0.607253172099529 -0.069898905683622 20
0.522609914226998 0.606946967854046 -0.070073217169117 20
0.522219876419052 0.602017343302315 -0.069724594198127 20
0.516453355654720 0.591187926235123 -0.068678725285155 28
0.530358064992014 0.602844596571824 -0.070247528654612 28
0.539065347193687 0.608446075712382 -0.071119086082089 23
0.537101533250538 0.602194425709484 -0.070596151625603 27
0.528549441510642 0.588457830407405 -0.069201659741641 28
0.527927273081126 0.583654053069612 -0.068853036770650 28
0.536669761634293 0.589172341434403 -0.069724594198127 24
0.535927473849056 0.584452493698214 -0.069375971227136 33
0.540667667055020 0.585505725646803 -0.069724594198127 44
0.535924317393516 0.576319690236030 -0.068853036770650 37
0.533847218057204 0.570082577255541 -0.068330102314164 38
0.545402388182933 0.578362337241064 -0.069550282712631 33
0.543302002454923 0.572120755890918 -0.069027348256145 24
0.543918757087816 0.568780840935685 -0.068853036770650 20
0.538990721540332 0.559703064633155 -0.067981479343173 17
0.568681738740567 0.586424288877695 -0.071467709053080 7
0.573509302651726 0.587286552056608 -0.071816332024070 3
2.481036744119100 2.522959102455085 -0.309577198239682 2
2.458985930642340 2.483137896097444 -0.305742345558785 4
2.449349491936073 2.456198934119242 -0.303476296247346 7
2.463555422392977 2.453257658100787 -0.304173542189327 14
2.472103880886449 2.444643298793948 -0.304173542189327 19
2.469249737493711 2.424831247856935 -0.302779050305365 20
2.466287540549412 2.405069045843772 -0.301384558421402 19
2.458923790390420 2.381199115961371 -0.299467132080953 16
2.461476343647071 2.367077262110882 -0.298769886138972 16
2.469723989085776 2.358470685183673 -0.298769886138972 15
2.472785458871607 2.346585781556950 -0.298246951682486 13
2.470811459719405 2.328374932793225 -0.297026771284019 12
2.468740578902755 2.310206574068119 -0.295806590885552 10
2.470951621522378 2.296149942539230 -0.295109344943571 7
2.478951626686007 2.287510722833399 -0.295109344943571 5
2.479576708866840 2.272113436702210 -0.294237787516094 4
nan nan nan 0
3.627759973762295 3.277932675551151 -0.427760385405506 52
3.635300258728839 3.260623282348425 -0.427237450949020 65
3.627318081609553 3.230687054268579 -0.424971401637581 66
3.632042635980904 3.213359881996673 -0.424274155695600 60
3.637249984780659 3.195402189042355 -0.423576909753619 60
3.635817016696609 3.172842988100909 -0.422182417869656 61
3.637835794505011 3.152303719401249 -0.421136548956684 61
3.642776136882924 3.134388107595616 -0.420439303014703 61
3.653695000127744 3.121653350153093 -0.420439303014703 63
3.658492114825404 3.103724867201457 -0.419742057072722 61
3.647970685734750 3.072964882699654 -0.417301696275787 63
3.654090304363101 3.056377514518773 -0.416778761819301 65
3.655540462683008 3.035966087992921 -0.415732892906329 66
3.663041380349011 3.020652206749578 -0.415384269935339 65
3.667396824730162 3.002798561690521 -0.414687023993358 65
3.653120727955848 2.969869517577798 -0.411898040225432 66
3.655713526094675 2.950842565364540 -0.411026482797956 63
3.658218097893700 2.931833775205773 -0.410154925370479 68
3.671547907889028 2.921527476659216 -0.410503548341470 65
3.675470115284668 2.903753127620006 -0.409806302399489 65
3.663636383387868 2.873690560923172 -0.407365941602554 65
3.668929267896648 2.857212066807032 -0.406843007146068 63
3.678880446868599 2.844387706552018 -0.406843007146068 61
3.681971567445934 2.827318693952926 -0.406145761204087 58
3.682311491324620 2.807201481569211 -0.405099892291115 57
3.682555950350843 2.787116434368600 -0.404054023378143 55
3.682705173528900 2.767063973293363 -0.403008154465171 55
3.689147525881142 2.751809556270553 -0.402659531494181 57
3.698730658253975 2.738915263272855 -0.402659531494181 57
3.701847478219407 2.721267272612940 -0.401962285552199 55
3.194699905766223 2.331323823350662 -0.346008298708203 18
3.170548071980439 2.296781129213285 -0.342522068998297 5
3.151047146811328 2.265925355731089 -0.339558773744876 5
3.145964455801292 2.245651923453048 -0.338164281860914 5
3.144030106200009 2.227745467273903 -0.337118412947942 5
3.155433829361264 2.218498895242140 -0.337467035918932 5
3.143552256655789 2.193788189206820 -0.335375298092989 3
3.157360376333880 2.187890924864090 -0.336072544034970 3
3.168261477682954 2.179114500759556 -0.336421167005961 2
3.185721809447178 2.174781955157961 -0.337467035918932 2
3.173500663219662 2.150237417117796 -0.335375298092989 2
3.177680419096849 2.136923087302203 -0.335026675121998 2
3.198377837895885 2.134666251301779 -0.336421167005961 2
3.205809728054718 2.123488824058201 -0.336421167005961 2
3.193224094942927 2.099152141284688 -0.334329429180017 2
3.200167576864513 2.088551486741296 -0.334329429180017 2
3.214127616908197 2.081700456161917 -0.335026675121998 2
3.211318205925913 2.064004893737597 -0.333980806209026 3
3.238661004184695 2.065639403458223 -0.336072544034970 6
3.259319964577014 2.062845939031265 -0.337467035918932 8
3.281685963044332 2.060992949923851 -0.339035839288390 8
3.309151346040216 2.062170057277608 -0.341127577114334 8
3.345137678953126 2.068419536844809 -0.344090872367754 7
3.382905857233999 2.075484604710227 -0.347228479106670 5
3.424167490894258 2.084382927228734 -0.350714708816576 1
3.448477267626161 2.082717939904090 -0.352457823671530 2
3.464271617908721 2.075788164963922 -0.353329381099006 12
nan nan nan 0
3.741252991392366 2.206405852337260 -0.379999038379790 27
3.752371379258593 2.195345232218831 -0.380347661350780 66
3.747949337784978 2.175232887436172 -0.379127480952313 64
3.751311869793427 2.161458265221262 -0.378778857981322 67
3.762293493093758 2.150327887790865 -0.379127480952313 73
3.767055257505886 2.133901887070639 -0.378778857981322 69
3.764059070140079 2.114883709679022 -0.377732989068351 70
3.752274203876126 2.091063117588108 -0.375815562727902 68
3.764781801673215 2.080843896434132 -0.376338497184388 67
3.753832565465861 2.059423067265552 -0.374595382329435 60
3.760998423877570 2.046307199598314 -0.374595382329435 46
3.757951689502717 2.026833949880948 -0.373549513416463 59
3.765003765570593 2.013703902331618 -0.373549513416463 64
3.764969350359797 1.996815208648630 -0.372852267474482 56
3.775443402450977 1.985515603126830 -0.373200890445472 64
3.778473915855308 1.971141814746011 -0.372852267474482 63
3.778252771347621 1.954279057799108 -0.372155021532500 57
3.770868597284433 1.933805225887259 -0.370760529648538 64
3.781147905055789 1.922436609340926 -0.371109152619528 63
3.788168590224581 1.908565096840537 -0.371109152619528 61
3.791242773543655 1.893549804390619 -0.370760529648538 26
3.788901731637101 1.875884275808777 -0.369888972221061 60
3.784695056953434 1.857380437878655 -0.368843103308089 68
3.789042033670686 1.843947881316819 -0.368668791822594 63
3.795455528811488 1.830710422418135 -0.368668791822594 61
3.798544520413297 1.815069083989710 -0.368320168851603 60
3.804857151846937 1.801798631161745 -0.368320168851603 63
3.799678725937879 1.784754091817605 -0.367274299938632 61
3.802272920540354 1.769798345944353 -0.366925676967641 61
3.809040412314459 1.755185655404334 -0.366925676967641 38
nan nan nan 0
3.788525643677911 1.713770021663972 -0.363788070228725 16
3.769030598289004 1.689127639359924 -0.361347709431791 35
3.783422059085429 1.681324098899944 -0.362219266859267 44
3.803856059987040 1.674529220214593 -0.363613758743230 60
3.808431148124702 1.659115414361085 -0.363439447257735 59
3.825175452635013 1.650547548801448 -0.364485316170707 64
3.815687331603649 1.632253424183328 -0.363090824286744 64
3.828699901454649 1.622033077517357 -0.363788070228725 26
3.814408015432721 1.599514028977082 -0.361870643888277 60
3.825488307811040 1.588481696833649 -0.362393578344763 59
3.830734869109942 1.575787186443562 -0.362393578344763 64
3.819605076142730 1.555642164531647 -0.360824774975305 68
3.823164178435659 1.541554704806474 -0.360650463489810 67
3.828521916523138 1.528199979677589 -0.360650463489810 67
3.834097334008901 1.514157480756352 -0.360650463489810 67
3.659360406119232 1.430405076929798 -0.343742249396764 21
nan nan nan 0
3.272714065393226 1.253656476341455 -0.306613902986261 50
3.271264624704367 1.240677264296520 -0.306090968529775 42
3.283036914422045 1.232050977031148 -0.306788214471757 41
3.283581985372545 1.219196506760800 -0.306439591500766 41
3.276596549618839 1.203605302925293 -0.305393722587794 40
3.277240557536974 1.190227631688376 -0.305045099616804 40
3.281375261232986 1.178780676024142 -0.305045099616804 40
3.289020786644465 1.169227496779217 -0.305393722587794 41
3.289322888262635 1.156417927892565 -0.305045099616804 41
3.286011188326620 1.141738522673121 -0.304347853674822 40
3.288092286438051 1.129613903994896 -0.304173542189327 41
3.292015342627261 1.118129438007387 -0.304173542189327 41
3.292120752795526 1.105363002581048 -0.303824919218336 38
3.297659026940723 1.095067764920435 -0.303999230703832 40
3.290103197430415 1.079822305214045 -0.302953361790860 39
3.303328421398291 1.071404572906169 -0.303824919218336 24
3.379146780019702 1.082973965147453 -0.310448755667158 7
3.494973564838647 1.106657145766161 -0.320733133311382 1
3.669952927896589 1.147983582379819 -0.336421167005961 1
3.357941058846716 1.037530017370845 -0.307485460413738 18
3.275788627745564 0.999633868789094 -0.299641443566449 7
3.283073352850630 0.989342872709450 -0.299990066537439 7
3.275048905298255 0.974467564678973 -0.298944197624468 7
3.280342100433955 0.963591107072070 -0.299118509109963 9
3.272204257680910 0.948805563422200 -0.298072640196991 9
3.281078816199462 0.939594851350569 -0.298595574653477 9
3.284338624842101 0.928136024603969 -0.298595574653477 9
3.285799077998503 0.915557299524948 -0.298421263167982 9
3.296659472083339 0.906194483889099 -0.299118509109963 9
3.282495939787311 0.889989088637360 -0.297549705740505 9
3.281733043143968 0.877496296252958 -0.297201082769514 9
3.292330746466992 0.868641952486175 -0.297898328711496 9
3.295342814722186 0.857144281442603 -0.297898328711496 9
3.294602163399052 0.844071535795413 -0.297549705740505 9
3.284006073108110 0.829151930709695 -0.296329525342038 10
3.294614182288319 0.819607520100481 -0.297026771284019 10
3.293584822086355 0.807153700379269 -0.296678148313028 10
3.309800148425283 0.799502072064154 -0.297898328711496 10
3.297064291818085 0.784255398683783 -0.296503836827533 10
3.299781767191444 0.772741718595197 -0.296503836827533 10
3.294693112106846 0.759428573220926 -0.295806590885552 10
3.305096064918034 0.749686251981371 -0.296503836827533 11
3.303803706912676 0.737276851322246 -0.296155213856542 11
3.304411094778962 0.725312775382675 -0.295980902371047 12
3.303027697409790 0.712933086285458 -0.295632279400056 12
3.299649188962508 0.700158342309821 -0.295109344943571 12
3.302073095078942 0.688636151594405 -0.295109344943571 12
3.316167776871858 0.679505235404665 -0.296155213856542 13
3.324379147275956 0.669104895715416 -0.296678148313028 13
3.313012448661611 0.654792413066149 -0.295457967914561 9
3.510869534224945 0.681172162121617 -0.312889116464093 19
3.567909665861007 0.679969812768342 -0.317769838057962 33
3.599638275079745 0.673003754903989 -0.320384510340391 45
3.584328085350576 0.657200670690240 -0.318815706970934 37
3.541498170677105 0.636577998126052 -0.314806542804541 18
3.533887762155936 0.622483822633818 -0.313934985377065 33
3.567453113037746 0.615564954855570 -0.316723969144990 45
3.551899187476442 0.600121140678438 -0.315155165775532 38
3.553972361800112 0.587719042609585 -0.315155165775532 39
3.542234524335126 0.573082367172996 -0.313934985377065 37
3.516662576580418 0.556355481087823 -0.311494624580130 24
3.563773704245052 0.551701317941231 -0.315503788746523 25
3.471118378510013 0.524957298697413 -0.307136837442747 15
nan nan nan 0
3.313076313884736 0.476831356539438 -0.292843295632131 1
3.342343253052423 0.469140854137463 -0.295283656429066 1
3.047860099292636 0.416962979303566 -0.269136933604768 6
3.120394601617575 0.415795237388851 -0.275412147082600 1
nan nan nan 0
2.969036990219514 0.374550144521877 -0.261815851213965 1
2.998012456688703 0.367578513998062 -0.264256212010900 1
2.999214906877164 0.357634725354597 -0.264256212010900 1
3.051903832274415 0.353117321318820 -0.268788310633778 1
3.251115114949570 0.364670989429182 -0.286219459183309 3
3.169177342118460 0.344282833765327 -0.278898376792506 1
2.984155862525296 0.313120842451435 -0.262513097155946 1
4.277641303160357 0.433752679408497 -0.376164185698893 2
nan nan nan 0
2.935698098526547 0.276988228456547 -0.257980998533068 1
2.936647082600769 0.266739042227180 -0.257980998533068 1
2.937560284557038 0.256486605866761 -0.257980998533068 1
4.332146741000274 0.363780525792265 -0.380347661350780 6
2.939238068308331 0.236485479898848 -0.257980998533068 1
2.940085088628135 0.225711045415085 -0.257980998533068 1
2.940855055203760 0.215446858130657 -0.257980998533068 1
2.941553332912263 0.205693446732363 -0.257980998533068 1
2.942253416083669 0.195424256273008 -0.257980998533068 1
3.020467505788019 0.190031708077115 -0.264779146467386 5
2.931612728356927 0.174169888622455 -0.256935129620096 1
2.864567219433869 0.160154171463432 -0.251008539113255 1
4.325518439383687 0.226690815655946 -0.378953169466818 9
4.308336446392725 0.211466557425523 -0.377384366097360 6
4.334922547923770 0.197605833876486 -0.379650415408799 9
2.818748692758108 0.118140573562806 -0.246825063461368 1
2.847016799277954 0.109371353189228 -0.249265424258302 1
4.292948549558007 0.150663245880725 -0.375815562727902 2
4.335267610023215 0.136998671653402 -0.379476103923304 7
4.335740616102100 0.121108201348102 -0.379476103923304 7
4.340120537096143 0.106070261223211 -0.379824726894294 10
4.342424286228641 0.092477290196651 -0.379999038379790 9
4.338736489304671 0.077247902599995 -0.379650415408799 7
4.338990474567467 0.061345119550909 -0.379650415408799 6
2.848955367017847 0.030332573407669 -0.249265424258302 1
2.705592106552711 0.019833381246598 -0.236714997302640 1
2.669782109821243 0.010251277767885 -0.233577390563724 2
nan nan nan 0
nan nan nan 0
2.679701658284976 -0.018240432302197 -0.234448947991200 76
2.671652526581435 -0.027512160949776 -0.233751702049219 84
2.655602614509345 -0.036618037841335 -0.232357210165257 96
2.655458614863831 -0.045887597776326 -0.232357210165257 100
2.657274218977498 -0.055197976378806 -0.232531521650752 100
nan nan nan 0
nan nan nan 0
2.696393507078811 -0.083795441557924 -0.236017751360658 2
2.708031778071073 -0.093620130847939 -0.237063620273630 1
3.145696915900438 -0.119745824703118 -0.275412147082600 2
3.197017199399512 -0.132876807758516 -0.279944245705478 1
3.152745759905389 -0.142062579457753 -0.276109393024581 2
3.136310304479753 -0.152293785511485 -0.274714901140619 2
3.175553495944124 -0.165312205207430 -0.278201130850525 2
3.176946423595006 -0.176506472150817 -0.278375442336020 5
nan nan nan 0
3.597199066837681 -0.225055980396895 -0.315329477261027 33
nan nan nan 0
3.518024438539521 -0.244770236472047 -0.308531329326710 4
3.525096956371859 -0.257629843797553 -0.309228575268691 4
3.520203043163784 -0.269628837421010 -0.308879952297701 3
3.515268361952995 -0.281596808000741 -0.308531329326710 3
3.498380310390493 -0.292537462486060 -0.307136837442747 3
3.481458904779123 -0.303363663721221 -0.305742345558785 3
3.488370907546072 -0.315625075282427 -0.306439591500766 3
3.499149788108615 -0.328918610014070 -0.307485460413738 3
3.497920738025094 -0.341741425829724 -0.307485460413738 3
3.480848447814319 -0.352344153255233 -0.306090968529775 3
3.487587228220091 -0.364714020867497 -0.306788214471757 4
3.494216284066508 -0.377742308721955 -0.307485460413738 3
3.496836606738196 -0.390379203957363 -0.307834083384729 3
3.487535405103285 -0.401671210365807 -0.307136837442747 3
3.501940041252794 -0.415721500880423 -0.308531329326710 3
3.476735583882547 -0.425041711512794 -0.306439591500766 3
3.455462637078313 -0.434688418151922 -0.304696476645813 3
3.509250257041400 -0.453903725238006 -0.309577198239682 3
3.472094007221175 -0.461426030669756 -0.306439591500766 3
3.462565789404294 -0.472465630685697 -0.305742345558785 3
3.457117928574576 -0.482790122239678 -0.305393722587794 3
3.447522546992389 -0.493724969085764 -0.304696476645813 3
3.461370712301432 -0.509279010961953 -0.306090968529775 1
nan nan nan 0
nan nan nan 0
nan nan nan 0
nan nan nan 0
nan nan nan 0
nan nan nan 0
nan nan nan 0
0.945858282606622 -0.166099554623329 -0.084018136008742 2
0.898205202918552 -0.160965339299333 -0.079834660356855 2
0.917236936699664 -0.167682642349497 -0.081577775211808 2
0.889224991932033 -0.165771479341906 -0.079137414414874 2
0.873010994598233 -0.165746316118809 -0.077742922530911 3
0.891988259341770 -0.172577272713218 -0.079486037385864 2
0.875712025955322 -0.172760406686107 -0.078091545501902 2
0.890730495253816 -0.178955733871771 -0.079486037385864 2
0.870580650995114 -0.178071244476127 -0.077742922530911 3
0.893360590168325 -0.185981942510038 -0.079834660356855 2
0.884942093186200 -0.187293249603276 -0.079137414414874 2
0.892073965368192 -0.192058499728534 -0.079834660356855 2
0.871901946860714 -0.191062046418490 -0.078091545501902 2
0.875119122254083 -0.194970925615044 -0.078440168472892 2
0.839522194077929 -0.189810457685769 -0.075302561733977 3
0.866039617375679 -0.198985977224879 -0.077742922530911 3
0.818707613312460 -0.191423226592457 -0.073559446879023 3
0.849049957261635 -0.201645945190484 -0.076348430646949 3
0.829042135637479 -0.199647650106943 -0.074605315791995 3
0.824469435951099 -0.201593880744838 -0.074256692821005 3
0.785086506874715 -0.194871029848714 -0.070770463111098 3
0.795993637373016 -0.200530655303083 -0.071816332024070 3
0.768264428412809 -0.196399446668854 -0.069375971227136 4
0.798431439580119 -0.207083209267627 -0.072164954995061 3
0.782289155328053 -0.205813553992836 -0.070770463111098 3
0.777715887331140 -0.207515693440323 -0.070421840140108 4
0.776986784270824 -0.210229164246459 -0.070421840140108 4
0.764719775051867 -0.209777597137812 -0.069375971227136 4
0.756267918360533 -0.210442553567080 -0.068678725285155 4
0.744023215675670 -0.209836248714503 -0.067632856372183 4
0.743323282707126 -0.212302364858334 -0.067632856372183 4
0.757888560588864 -0.219326594195197 -0.069027348256145 4
0.757079597844574 -0.222102921458102 -0.069027348256145 4
0.756299701579470 -0.224744269300752 -0.069027348256145 4
0.755589915609150 -0.227119141911206 -0.069027348256145 4
0.739544184834744 -0.225113738843397 -0.067632856372183 4
0.738753885687411 -0.227693858328878 -0.067632856372183 4
0.737954585057118 -0.230271203436551 -0.067632856372183 4
0.737105642207311 -0.232974395513944 -0.067632856372183 4
0.724902023447833 -0.231903491785578 -0.066586987459211 4
0.708964012386467 -0.229399144857938 -0.065192495575248 4
0.708158940685439 -0.231872493513025 -0.065192495575248 4
0.722433833308164 -0.239481793864959 -0.066586987459211 4
0.698925626378535 -0.234399939347506 -0.064495249633267 4
0.675461976243204 -0.229156977558482 -0.062403511807323 5
