# This PCD file was generated using the MATLABÂ® pcwrite function
# from Computer Vision ToolboxÂ®.
# .PCD v.7 - Point Cloud Data file format
VERSION .7
FIELDS x y z intensity
SIZE 8 8 8 1
TYPE F F F U
COUNT 1 1 1 1
WIDTH 837
HEIGHT 1
VIEWPOINT 0 0 0 1 0 0 0
POINTS 837
DATA ascii
-1.542058651502912 -0.643792537094245 0.447756948027361 54
-1.540614695633815 -0.637198640534797 0.446721671846951 54
-1.550091314411428 -0.634474945507617 0.448792224207771 54
-1.555767378578792 -0.630782913247177 0.449827500388181 56
-1.558068863741240 -0.625076503905404 0.449827500388181 54
-1.552951845125419 -0.617052900661508 0.447756948027361 52
-1.547905103826560 -0.608799988719984 0.445686395666541 56
-1.557327585197058 -0.605924506747765 0.447756948027361 54
-1.561340883310841 -0.600906433268316 0.448274586117566 50
-1.559506963567440 -0.594894133633540 0.447239309937156 50
-1.556151898516237 -0.587400123818578 0.445686395666541 54
-1.554573331446796 -0.580612727292591 0.444651119486131 54
-1.560315367646677 -0.576249590198018 0.445686395666541 59
-1.569475390674625 -0.573725294509452 0.447756948027361 56
-1.569651777310575 -0.567586379005601 0.447239309937156 50
-1.562625931559731 -0.558578177121891 0.444651119486131 54
-1.564566213212294 -0.553120191653021 0.444651119486131 56
-1.570038835744524 -0.549204598461946 0.445686395666541 56
-1.570120630675946 -0.543089295055345 0.445168757576336 57
-1.570085140870101 -0.537254159926794 0.444651119486131 52
-1.575703901509732 -0.532733377483310 0.445686395666541 54
-1.566469079824392 -0.523829231293140 0.442580567125310 62
-1.572047209874817 -0.519296209781045 0.443615843305721 60
-1.581106054954941 -0.516479699216330 0.445686395666541 59
-1.579311334952723 -0.509494935430745 0.444651119486131 56
-1.579151694313850 -0.503667923386859 0.444133481395926 57
-1.571773911009507 -0.494975280912351 0.441545290944900 60
-1.577095778977960 -0.490908693682380 0.442580567125310 62
-1.584424401699268 -0.486827244516012 0.444133481395926 57
-1.587710194760486 -0.482685942817222 0.444651119486131 59
-1.581984314049972 -0.474919015941539 0.442580567125310 60
-1.581780251096098 -0.468844967996106 0.442062929035105 53
-1.585342230734457 -0.463586510861709 0.442580567125310 58
-1.581382542807121 -0.456442617118914 0.441027652854695 56
-1.594113839780152 -0.454095272519452 0.444133481395926 49
-1.586390327992499 -0.445914210691066 0.441545290944900 46
-1.582428986318318 -0.438548984411199 0.439992376674285 20
-1.589312831397616 -0.435383141611245 0.441545290944900 21
-1.579633074853306 -0.426809309454081 0.438439462403670 17
-5.339568220615601 -1.419751387737421 1.480444937986419 12
-5.338885437314940 -1.399634477074728 1.478892023715804 14
-5.343256165150988 -1.382854994482699 1.478892023715804 12
-5.349922588281954 -1.364672617130405 1.479409661806009 10
-5.354418590070090 -1.346924131073040 1.479409661806009 8
-5.370570544478719 -1.330076632250201 1.482515490347239 7
-5.363691334626654 -1.309510717560563 1.479409661806009 7
-5.381603674346752 -1.293002177962049 1.483033128437444 5
-5.382324388420463 -1.273319497895100 1.481997852257034 5
-5.394481493977670 -1.255335167016149 1.484068404617854 5
-5.424759825618225 -1.244428944279356 1.491315337880725 5
-5.421746393179586 -1.222837690311325 1.489244785519904 5
-5.444630788341548 -1.209039683382371 1.494421166421955 3
-5.445250699271054 -1.188252248016210 1.493385890241545 3
-5.467844025155657 -1.175199062318606 1.498562271143595 3
-5.509715430691928 -1.164092477486095 1.508915032947696 3
-5.476113508389349 -1.136042236336596 1.498562271143595 3
-5.495384544619064 -1.119047483766953 1.502703375865236 3
-5.521603454614597 -1.106332099024791 1.508915032947696 3
-5.529222668535688 -1.087797198799036 1.509950309128106 3
-5.547973477049652 -1.072388683481917 1.514091413849747 3
-5.536682120675749 -1.049169747254193 1.509950309128106 3
-5.551706583318919 -1.031955007252996 1.513056137669336 3
-5.570479266147395 -1.015340963963930 1.517197242390977 3
-5.589377626757825 -0.997632887942111 1.521338347112617 3
-5.589020024959750 -0.977450629501570 1.520303070932207 3
-5.565573767132806 -0.954340487910002 1.513056137669336 3
-5.584112651806863 -0.937465956508154 1.517197242390977 3
-5.587190697600275 -0.918943217141394 1.517197242390977 3
-2.985044619374283 -0.479729881821555 0.810103611170890 1
-2.948451392634146 -0.463824281609820 0.799750849366789 3
-2.913851654027797 -0.447443498875259 0.789915725652893 28
nan nan nan 0
-2.899701128299424 -0.424571357298657 0.785256982841048 37
-2.912494690351467 -0.417102812630106 0.788362811382278 45
-2.892957239336612 -0.403489743102141 0.782668792390023 40
-2.876914647944255 -0.392553781282448 0.778010049578177 41
-2.882164224368891 -0.382515050921881 0.779045325758588 42
-2.877798919249852 -0.371207395458393 0.777492411487972 41
-2.894411774250885 -0.363083361524104 0.781633516209613 43
-2.905126023723689 -0.355160669395789 0.784221706660638 41
-2.887224026679181 -0.342236468220662 0.779045325758588 41
-2.892297476827243 -0.332092697928243 0.780080601938998 41
-2.897279074580717 -0.322422004438983 0.781115878119408 41
-2.898277694027641 -0.313318357667671 0.781115878119408 42
-2.899406596044935 -0.302693534388950 0.781115878119408 42
-2.898472358157693 -0.292882871911442 0.780598240029203 42
-2.903322511964282 -0.283138548875300 0.781633516209613 42
-2.904340765567648 -0.272495438126455 0.781633516209613 43
-2.912970348665997 -0.263050718871580 0.783704068570433 42
-2.911946202767284 -0.252713923836487 0.783186430480228 42
-2.910885409647414 -0.242387485899239 0.782668792390023 43
-2.911632526507938 -0.233241488590147 0.782668792390023 42
-2.916320313117346 -0.222862657718373 0.783704068570433 43
-2.918970030295100 -0.213331378473250 0.784221706660638 46
-2.929368403000333 -0.203300136031470 0.786809897111663 42
-2.916532920958538 -0.192693373203900 0.783186430480228 46
-2.923003896191362 -0.182363328687908 0.784739344750843 43
-2.925490853336760 -0.173293790836057 0.785256982841048 46
-2.916461972047160 -0.162034339019651 0.782668792390023 43
-2.934346257185537 -0.153269029011691 0.787327535201868 45
-2.931029150601026 -0.142325688931977 0.786292259021458 45
-2.931485003800567 -0.132605263452556 0.786292259021458 45
-2.931930022941279 -0.122371663298687 0.786292259021458 45
-2.941952069463206 -0.113532627122132 0.788880449472483 49
-2.950071126103357 -0.103018753778918 0.790951001833303 50
-2.938827365416757 -0.092356370641068 0.787845173292073 49
-2.939131844970635 -0.082097386072263 0.787845173292073 48
-2.950975529616368 -0.072635640730227 0.790951001833303 48
-2.955084787347466 -0.061900202144791 0.791986278013713 49
-2.961059306107845 -0.052719408388797 0.793539192284329 46
-2.951567022346570 -0.042244825660631 0.790951001833303 49
-2.947833025253376 -0.031899868209677 0.789915725652893 49
-2.959517215861461 -0.021694782855810 0.793021554194124 48
-2.955711239571317 -0.011349172206619 0.791986278013713 50
-2.963460254510529 -0.001034442815876 0.794056830374534 48
-2.959585191984788 0.008264742458345 0.793021554194124 48
-2.961466832599633 0.019124584205470 0.793539192284329 45
-2.967182408184251 0.029001700914436 0.795092106554944 50
-2.980577922057424 0.040058503384491 0.798715573186379 54
-3.001676080426865 0.050298272378066 0.804409592178635 48
-2.966705486445839 0.060589593051761 0.795092106554944 21
-2.962650008479308 0.069301352029421 0.794056830374534 21
-5.621562481639439 0.152115010267580 1.506844480586876 14
-5.634573655416174 0.170183142867101 1.510467947218311 14
-5.657080989053021 0.191618530400788 1.516679604300772 14
-5.648692387041616 0.210089829262777 1.514609051939952 15
-5.647924622914717 0.229806165398631 1.514609051939952 15
-5.656781421130947 0.248958794239068 1.517197242390977 15
-5.659690264312922 0.269874288500996 1.518232518571387 15
-5.668410927054468 0.289133071539880 1.520820709022412 15
-5.663509154126927 0.308707465477838 1.519785432842002 15
-5.660468450586952 0.328363042591223 1.519267794751797 15
-5.670796037664319 0.349821169045442 1.522373623293027 15
-5.685027059317785 0.369627001149642 1.526514728014667 15
-5.683702185172801 0.389469197005652 1.526514728014667 15
-5.680381197616730 0.409167852237197 1.525997089924462 14
-5.675065602309414 0.428702549685605 1.524961813744052 14
-5.679312106824777 0.448966344426627 1.526514728014667 14
-5.683486222138602 0.469265003341805 1.528067642285282 10
-5.693447408438683 0.489101635225171 1.531173470826513 7
-5.687768232514359 0.509621073431670 1.530138194646103 7
-5.674505627476577 0.527406898518411 1.527032366104872 7
-5.684071828247702 0.549316444871252 1.530138194646103 7
-5.684141242546739 0.568354692502432 1.530655832736308 7
-5.682019939185693 0.589184294093558 1.530655832736308 5
-5.687824579161433 0.607853095010748 1.532726385097128 5
-5.677877889834550 0.627846629232228 1.530655832736308 5
-5.695072151250158 0.647864649140244 1.535832213638358 5
-5.692659355909178 0.668733780461562 1.535832213638358 5
-5.690290357763123 0.688600795743614 1.535832213638358 5
-5.684017949036583 0.707981861208080 1.534796937457948 5
-5.685344388004536 0.728309413186485 1.535832213638358 5
-5.674975691783605 0.748132384047348 1.533761661277538 5
-5.680121322581302 0.767982533856043 1.535832213638358 5
-5.692714096767351 0.789929358364143 1.539973318359998 5
-5.670796258379758 0.807073823584830 1.534796937457948 5
-5.683092641931626 0.830086577144257 1.538938042179588 3
-5.699563624794807 0.850788537385846 1.544114423081639 3
-5.681281698726036 0.868343502572519 1.539973318359998 5
-5.674088546922567 0.889553182229486 1.538938042179588 5
-5.663318923803468 0.908130544595704 1.536867489818768 5
-5.656301645097199 0.927268629482004 1.535832213638358 5
-5.656841016999818 0.947645517652364 1.536867489818768 5
-5.661284339489706 0.967701053931973 1.538938042179588 5
-5.665311620394304 0.989774093102998 1.541008594540408 5
-5.654741839797513 1.005226555347542 1.538938042179588 5
-5.647217958095086 1.025255293134568 1.537902765999178 5
-5.643422278324560 1.045946495210017 1.537902765999178 5
-5.643347186050974 1.067341669767935 1.538938042179588 5
-5.636361231863924 1.083351810942996 1.537902765999178 5
-5.639935797588279 1.105489202942101 1.539973318359998 5
-5.651198304416998 1.128195183727405 1.544114423081639 5
-5.631880751071080 1.145819088885481 1.539973318359998 3
-5.635820667317576 1.165070859050396 1.542043870720819 3
-5.658186099647295 1.190304190721728 1.549290803983689 3
-5.634895383650700 1.206988261642710 1.544114423081639 3
-5.607783616729867 1.222694561314550 1.537902765999178 3
-5.607687151305787 1.241140812080741 1.538938042179588 5
-5.603320597424474 1.260707731717025 1.538938042179588 5
-5.617942326837880 1.283585081229391 1.544114423081639 5
-5.609436558084471 1.303292847837361 1.543079146901229 5
-5.597562762051379 1.320113493775564 1.541008594540408 5
-5.607950286257422 1.343244577035658 1.545149699262049 5
-5.602751269705393 1.364767605376464 1.545149699262049 5
-5.594202485436862 1.383389027122633 1.544114423081639 5
-5.586081051483224 1.400017582981961 1.543079146901229 5
-5.599882488095655 1.424269967438130 1.548255527803279 5
-5.591387338932569 1.441867233483246 1.547220251622869 5
-5.574851829688007 1.459415542419480 1.544114423081639 3
-5.618529861545089 1.490775805669704 1.557573013426970 1
-5.575719893573227 1.501313145676085 1.547220251622869 5
-5.566983228031645 1.518777719263220 1.546184975442459 5
-5.565102959353788 1.540202111659303 1.547220251622869 5
-5.563685150557504 1.559691112397747 1.548255527803279 5
-5.569080537046604 1.583242215812108 1.551361356344509 5
-5.534374367174615 1.592184383279510 1.543079146901229 5
-5.547047341553554 1.617867303331841 1.548255527803279 5
-5.549062903064671 1.638441315090201 1.550326080164099 5
-5.547011578207475 1.658908223282149 1.551361356344509 5
-5.537489291012424 1.677140839967159 1.550326080164099 5
-5.523917682564573 1.695158475446186 1.548255527803279 5
-5.518265962112587 1.713467126038967 1.548255527803279 5
-5.515937118325974 1.733877651786689 1.549290803983689 5
-5.525191704858154 1.755878677352953 1.553431908705329 5
-5.522396896154917 1.777301407317269 1.554467184885740 5
-5.501464249047847 1.791781281744913 1.550326080164099 5
-5.491506681601210 1.809764727974560 1.549290803983689 5
-5.484836676894308 1.829879950293619 1.549290803983689 5
-5.493059064768037 1.853956692046989 1.553431908705329 5
-5.493867050409142 1.875616412288476 1.555502461066150 5
-5.472678040283102 1.889737815000807 1.551361356344509 5
-5.470362381346140 1.908193939849480 1.552396632524919 5
-5.470618628865909 1.930802835252395 1.554467184885740 5
-5.464185776613342 1.948933444161152 1.554467184885740 5
-5.467908985216431 1.972881556818212 1.557573013426970 5
-5.454076607653269 1.988356218454470 1.555502461066150 5
-5.446752283822243 2.008333053129967 1.555502461066150 5
-5.447657869583001 2.028130677203626 1.557573013426970 5
-5.454651584346501 2.053528939791576 1.561714118148610 5
-5.436977615735126 2.067486059339301 1.558608289607380 5
-5.429363381389467 2.087399691576647 1.558608289607380 5
-5.418809727468721 2.103994164757687 1.557573013426970 5
-5.450997546219506 2.138417866148407 1.568961051411481 1
-5.429507796859673 2.150790463592774 1.564819946689840 3
-5.425175179463107 2.172112265318578 1.565855222870250 5
-5.407196034201262 2.185746869663186 1.562749394329020 5
-5.388802308139505 2.200226722746338 1.559643565787790 5
-5.377517338649052 2.217550782303749 1.558608289607380 5
-5.408584899395941 2.253592003308090 1.569996327591891 3
nan nan nan 0
-5.386805521872324 2.285453791458468 1.567925775231071 1
nan nan nan 0
-5.395134899848906 2.334683351302313 1.575172708493941 1
-5.340517931677502 2.334325006207656 1.561714118148610 5
-5.353546243592920 2.362311448788703 1.567925775231071 5
-5.342983352958464 2.376615041186414 1.566890499050661 5
-5.316614546182138 2.388266061497297 1.561714118148610 5
-5.305146369566359 2.404288574549587 1.560678841968200 5
-5.313865073889483 2.431755620432998 1.565855222870250 5
-5.311931317471273 2.454456852713845 1.567925775231071 5
-5.306401023526806 2.475543050861255 1.568961051411481 5
-5.295101432098120 2.490556882939734 1.567925775231071 5
-5.292917957735924 2.513262227469419 1.569996327591891 5
-5.295451192638834 2.534882694080593 1.573102156133121 5
-5.275688240429574 2.549231476571142 1.569996327591891 3
-5.270678941234125 2.568404796440731 1.571031603772301 3
-5.268616095357621 2.590196526541556 1.573102156133121 3
-5.252619796071753 2.605138187863319 1.571031603772301 5
-5.246491255031584 2.626101908881843 1.572066879952711 5
-5.231316038876613 2.639090758716018 1.569996327591891 5
-5.222072022017277 2.657335381206590 1.569996327591891 5
-5.216201741091353 2.677311916117392 1.571031603772301 5
-5.199492114766624 2.692858512368127 1.568961051411481 5
-5.201282435357403 2.714542825707179 1.572066879952711 5
-5.202032271479777 2.738080931035240 1.575172708493941 5
-5.178312174861997 2.749880491880448 1.571031603772301 5
-5.172087803159789 2.769763434187387 1.572066879952711 5
-5.172587002883451 2.793308188513588 1.575172708493941 5
-5.183164426534685 2.822433350110485 1.581384365576402 1
-5.161216350206891 2.830368435812784 1.577243260854762 5
-5.137284246779998 2.841785384957034 1.573102156133121 5
-5.117708248389197 2.853161372182996 1.569996327591891 5
-5.103848748950499 2.870005778215473 1.568961051411481 5
-5.107749272565755 2.894534673306459 1.573102156133121 5
-5.093751502249565 2.911318834872961 1.572066879952711 5
-5.084069213912922 2.928194316144096 1.572066879952711 5
-5.076643692700103 2.948749298217395 1.573102156133121 5
-5.060168289478309 2.961664495196374 1.571031603772301 5
-5.049279258286488 2.980191046189233 1.571031603772301 5
-5.046534171745465 2.999987743270736 1.573102156133121 5
-5.016145901980506 3.005669718054355 1.566890499050661 5
-5.018852862843381 3.031150877319939 1.571031603772301 5
-5.004409455572833 3.047515960962503 1.569996327591891 5
-4.997569303662422 3.066114928543894 1.571031603772301 5
-4.990122336545344 3.085573008578308 1.572066879952711 5
-4.963465461244446 3.091889515978576 1.566890499050661 5
-4.958643685592363 3.114170518531182 1.568961051411481 5
-4.951554579766134 3.132662569595552 1.569996327591891 5
-4.940589380169187 3.149927635344568 1.569996327591891 5
-4.938761897127009 3.174281734480378 1.573102156133121 5
-4.921165611985339 3.187301165462969 1.571031603772301 5
-4.906774281886650 3.202348150648791 1.569996327591891 5
-4.902022508098816 3.223702383137801 1.572066879952711 5
-4.897747658417840 3.244207641112375 1.574137432313531 5
-4.889037446759525 3.264282429968180 1.575172708493941 5
-4.869138656368317 3.273159096349503 1.572066879952711 5
-4.863506469760163 3.295317915283804 1.574137432313531 5
-4.855743479202034 3.313605619654033 1.575172708493941 5
-4.853116137327890 3.337949163354908 1.578278537035172 5
-4.832492004803071 3.347424078590918 1.575172708493941 5
-4.820190623315630 3.365113563212383 1.575172708493941 5
-4.818487101465911 3.387745992919299 1.578278537035172 3
-4.809190560805946 3.407617647160762 1.579313813215582 1
-4.785283614200487 3.414569909971122 1.575172708493941 3
-4.782747156082340 3.438018397350485 1.578278537035172 5
-4.773846459265171 3.456958469919455 1.579313813215582 5
-4.758022969721699 3.472154702650046 1.578278537035172 5
-4.740863676540220 3.482510587135431 1.576207984674351 3
-4.737996156294536 3.505932729292542 1.579313813215582 1
-4.710240185724087 3.510904831660820 1.574137432313531 3
-4.703519117108188 3.532785912569092 1.576207984674351 3
-3.858197832750834 2.917932103327038 1.296165777873424 7
-3.829548002360460 2.917333793701266 1.289954120790963 6
-3.824959459874639 2.936055410628780 1.292024673151783 6
-3.784121005402021 2.925756197658577 1.281671911347683 6
-3.792690762557779 2.952529202866000 1.287883568430143 30
-3.747395846326387 2.938333675598458 1.275977892355427 24
-3.732568102720414 2.947804663438142 1.274424978084812 29
-3.702087039315979 2.945828102394054 1.267695682912146 24
-3.697854600591660 2.960421482058372 1.269248597182762 29
-3.659913359289012 2.952123269212068 1.259931111559071 29
-3.642605483627083 2.958154503975308 1.257342921108046 29
-3.619777574504678 2.961698755531840 1.253201816386406 24
-3.604944627614099 2.970630447845808 1.251648902115790 32
-3.573223387792189 2.966547211970492 1.244401968852920 26
-3.559438641858498 2.974042162170605 1.242849054582305 29
-3.538168801548585 2.978359527309635 1.239225587950869 29
-3.523851356960731 2.986329179255225 1.237672673680254 29
-3.538385953784085 3.019931637624030 1.246472521213740 45
-3.515164682049858 3.020317830600039 1.241813778401895 45
-3.521598711584214 3.048353494421618 1.248025435484355 39
-3.528947893332527 3.075245044183221 1.254237092566816 39
-3.532711767914167 3.100287287927660 1.259413473468866 40
-3.543581344197544 3.131789753443925 1.267178044821941 37
-3.547950229218402 3.158887443412708 1.272872063814197 35
-3.551841221293546 3.183529505388376 1.278048444716247 35
-3.553613577330567 3.207558076493024 1.282707187528093 37
-3.555261303437824 3.231637669306009 1.287365930339938 35
-3.568184014437279 3.266202858884311 1.296165777873424 40
-3.575226712948118 3.295659930826362 1.302895073046089 38
-3.580691162342667 3.323891449649531 1.309106730128550 38
-3.579529457886876 3.344980162965781 1.312730196759985 36
-3.581311874979940 3.371318956533602 1.317906577662036 35
-3.590337567053823 3.401153381881716 1.325153510924906 31
-3.596016358486005 3.431627972307417 1.331882806097572 35
-3.598361400079111 3.454323077313341 1.336541548909417 35
-3.605118591527388 3.486289783739253 1.343788482172288 36
-3.606767449016552 3.512330617539509 1.348964863074338 29
-3.611797864987938 3.543113536391901 1.355694158247004 14
nan nan nan 0
-3.871178323471266 3.852306252930746 1.463362881009652 1
-3.876114997268201 3.880176182204087 1.469574538092113 1
-3.889757656864663 3.921112668348696 1.479927299896214 1
-3.884181132393351 3.942924000119273 1.483033128437444 1
-3.883210322718718 3.970945736955152 1.488209509339494 1
-3.894950134966402 4.008063415850819 1.497526994963185 1
-3.910448472019194 4.052217685542968 1.508915032947696 3
-3.909646080215424 4.079791014005822 1.514091413849747 3
-3.903987208033452 4.103891009892584 1.517714880481182 10
-3.899644777289143 4.126643217503322 1.521338347112617 24
-3.875962683716760 4.130369331670131 1.517714880481182 14
-3.867381987760693 4.151615484755092 1.520303070932207 5
nan nan nan 0
nan nan nan 0
-1.446693238345959 1.585442322815089 0.575095918217801 1
-1.423811975195844 1.569695190020841 0.567848984954931 1
-1.387025325625973 1.540447685025243 0.555425670790009 2
-1.372894138365598 1.534959286863050 0.551802204158574 4
-1.373672044630431 1.547204060285993 0.554390394609599 3
-1.363692340224159 1.545717306971828 0.552319842248779 3
-1.345290403468236 1.536171788258653 0.547143461346729 5
-1.333313972750014 1.533802271157949 0.544555270895704 8
-1.332731576454593 1.544529298676456 0.546625823256524 9
-1.330658428548094 1.551409509670947 0.547661099436934 9
-1.322458634161765 1.553334275125650 0.546625823256524 9
-1.310521854234415 1.550793191778124 0.544037632805499 9
-1.298891740107058 1.547958897663530 0.541449442354473 8
-1.289073822067408 1.546096728633024 0.539378889993653 7
-1.283398435816860 1.550811035546256 0.539378889993653 9
-1.280702156947200 1.558043168268832 0.540414166174063 10
-1.261819165952271 1.546040994486686 0.534720147181808 9
-1.257901910916678 1.551717530908664 0.535237785272013 8
-1.246150977390721 1.548791835814351 0.532649594820988 9
-1.247971711617018 1.562188443607768 0.535755423362218 11
-1.250914509643515 1.577130084232921 0.539378889993653 11
-1.234644848977055 1.567827305889361 0.534720147181808 12
-1.225594894626154 1.567561755088497 0.533167232911193 12
-1.226038507564688 1.579460573837322 0.535755423362218 12
-1.222876180124576 1.586790973306964 0.536790699542628 13
-1.219955794688139 1.593905605374545 0.537825975723038 17
-1.209431512946066 1.592212781581331 0.535755423362218 14
-1.198327770128591 1.588503464613301 0.533167232911193 13
-1.200601917327581 1.603710317044158 0.536790699542628 11
-1.202475199208231 1.616774917622154 0.539896528083858 8
-1.197688557373217 1.622725684931268 0.540414166174063 7
-1.187449776411381 1.620663192019569 0.538343613813243 5
-3.449076329640212 4.743763216341746 1.571549241862506 11
-3.437849966535937 4.761439735081963 1.573619794223326 16
-3.426000943440727 4.781860090445146 1.576207984674351 16
-3.414321958106638 4.797321347601309 1.577760898944967 16
-3.388637912147707 4.796587729165784 1.573619794223326 15
-3.373252564487851 4.812139289902978 1.574655070403736 15
-3.361107972901842 4.832400323916047 1.577243260854762 16
-3.351400476943526 4.850882747357202 1.579831451305787 15
-3.337724953316501 4.867331468507039 1.581384365576402 15
-3.312018645991770 4.866176341306496 1.577243260854762 16
-3.296323204257780 4.881484834822889 1.578278537035172 15
-3.287648100459136 4.903621112845384 1.581902003666607 3
-3.280142980218925 4.929542273584257 1.586560746478452 5
-3.258453722825914 4.932333147502699 1.583972556027427 9
-3.257105133252259 4.967910936023336 1.591737127380503 3
-3.215511812635977 4.942006917059460 1.579831451305787 13
-3.200337232356617 4.956446911762405 1.580866727486197 16
-3.188053581424736 4.973537969095586 1.582937279847017 16
-3.170839800864409 4.986819575652861 1.583454917937222 16
-3.150160879971100 4.990772477143215 1.581384365576402 16
-3.129797315985370 4.999010053650226 1.580349089395992 15
-3.111017026893295 5.003896051657098 1.578796175125377 11
-3.094683906040062 5.018553587156530 1.579831451305787 7
-3.080041821238040 5.032083740296036 1.580866727486197 7
-3.061577624290892 5.043338858372341 1.580866727486197 13
-3.048824474363753 5.060082498595365 1.582937279847017 16
-3.032239722546114 5.074539703930339 1.583972556027427 18
-3.013424423610082 5.081243825212561 1.582937279847017 18
-2.993709979567874 5.088401577021147 1.581902003666607 18
-2.973008507538396 5.093815188024550 1.580349089395992 18
-2.951415740570794 5.099661534231506 1.578796175125377 18
-2.942117081105004 5.120633862956072 1.582419641756812 18
-2.926137942546617 5.134229373922583 1.583454917937222 18
-2.911050417358023 5.149457412139603 1.585007832207837 18
-2.883656370964792 5.144925528114030 1.580349089395992 16
-2.845029496560267 5.117813242279931 1.568961051411481 9
-2.784241428560026 5.049892283441343 1.545149699262049 3
-2.789731169645302 5.099773554674117 1.557573013426970 1
-2.758094532989687 5.084009474811086 1.549808442073894 33
nan nan nan 0
-2.748914799311237 5.154754084512921 1.565337584780045 13
-2.764335677711801 5.223125767563908 1.583454917937222 20
-2.743378579748241 5.229800956591060 1.582419641756812 16
-2.731371235180934 5.249151946615982 1.585525470298042 7
-2.704144792925081 5.243674792435479 1.580866727486197 11
-2.696418467535499 5.271532267345734 1.586560746478452 20
-2.706776025121868 5.339965994985947 1.604160441545424 18
-2.722026400832182 5.414501100445116 1.623830688973215 16
-2.736618356393306 5.493608706211207 1.644536212581417 16
-2.746736529360891 5.557599043688846 1.661100631467978 16
-2.758633048862700 5.633559172883375 1.680770878895770 15
-2.776374977637435 5.715179784354297 1.702511678684381 16
-2.794121459694915 5.803163362757372 1.725805392743608 16
-2.837910683874568 5.947132020091758 1.765663525689396 11
-3.095969979850536 6.549575128609612 1.941142838268906 22
-3.120619275089650 6.661808804040042 1.971165847500798 22
-3.121747572834795 6.725229446449146 1.986694990206949 73
-3.084892600745819 6.703955238978836 1.977377504583259 52
-3.059499530022716 6.713458996228386 1.976859866493053 60
-3.029686667808512 6.710012174494054 1.972718761771413 60
-2.999146391555301 6.704675732933970 1.968060018959568 58
-2.976896395284306 6.714584396186869 1.968060018959568 61
-2.952663173287259 6.723166007514327 1.967542380869363 63
-2.926461057467711 6.730399652794241 1.966507104688953 65
-2.896836667530070 6.726379487051378 1.962365999967312 63
-2.872240519850393 6.730618280595785 1.960813085696697 61
-2.844545359378960 6.733981985908232 1.958742533335877 61
-2.822199030119925 6.743377812527718 1.958742533335877 61
-2.797464358729673 6.753676395100534 1.958742533335877 61
-2.773009580598013 6.751224995863461 1.955636704794647 61
-2.746791609801680 6.757763913276513 1.954601428614237 61
-2.721480972369684 6.759667188131885 1.952530876253417 61
-2.698117118726971 6.773185904852854 1.953566152433827 61
-2.669497276261328 6.769982556411731 1.949942685802391 60
-2.644666119278291 6.779721280379251 1.949942685802391 56
-2.617782748612985 6.773580566297849 1.945801581080751 56
-2.594812701355771 6.784481449747544 1.946319219170956 54
-2.568379404761625 6.786270577777115 1.944248666810136 56
-2.545520769302363 6.801066403154285 1.945801581080751 56
-2.516913032958656 6.793166659663239 1.941142838268906 54
-2.493849971614678 6.803724782324927 1.941660476359111 52
-2.470615464360143 6.810141239996558 1.941142838268906 54
-2.445638454294435 6.819150755945617 1.941142838268906 54
-2.422365752038129 6.825402698433561 1.940625200178701 52
-2.397886115056231 6.831993912961836 1.940107562088496 54
-2.368397854172706 6.827960526569553 1.936484095457060 56
-2.342669243126810 6.830704073620822 1.934931181186445 54
-2.320625585426480 6.840264524141200 1.935448819276650 52
-2.295505939605502 6.844660161434000 1.934413543096240 52
-2.269168163219665 6.845296371464570 1.932342990735420 56
-2.249473935613260 6.870090777946933 1.937001733547265 15
-2.224314556945290 6.862033120096193 1.932860628825625 35
-2.198560055386896 6.868299662144399 1.932342990735420 41
-2.182727193558100 6.901719273139577 1.939589923998290 67
-2.145325261732695 6.870947861737247 1.928719524103985 48
-2.119110661389652 6.866948514460107 1.925613695562754 54
-2.095053570880561 6.878365378112857 1.926648971743164 13
-1.895742047514066 6.298861202908898 1.762557697148166 3
-1.888041952526711 6.357620728349817 1.777051563673907 5
-1.862618135070572 6.344984477489557 1.771875182771857 1
-1.831855871717193 6.321759240091426 1.763592973328576 13
-1.825713470905725 6.383836684814979 1.779122116034728 1
-1.784474265649494 6.327268475073790 1.761522420967756 5
-1.772810328861470 6.366650105283412 1.770839906591447 3
-1.747505484273944 6.361622498367256 1.767734078050217 1
-1.724278213356212 6.363954429945025 1.766698801869807 5
-1.706922029449528 6.392629012379615 1.772910458952267 1
-1.678950518258753 6.368071631057044 1.764628249508986 5
-1.660599424763114 6.388851267795409 1.768769354230627 3
-1.633338956059629 6.379922804834938 1.764628249508986 3
-1.608223379320876 6.374346423174194 1.761522420967756 5
-1.587076442282526 6.379644435764406 1.761522420967756 3
-1.564797658391403 6.385145499416649 1.761522420967756 5
-1.547243982827901 6.405322191088669 1.765663525689396 3
-1.517502851415644 6.384637200610892 1.758416592426526 5
-1.496555843042467 6.385611287728413 1.757381316246116 5
-1.472273525646458 6.387288568181813 1.756346040065706 5
-1.451512088439054 6.394019602213602 1.756863678155911 7
-1.429750134549814 6.406838606166953 1.758934230516731 7
-1.406838400920017 6.403997168181236 1.756863678155911 9
-1.387025429642937 6.426105758385224 1.761522420967756 9
-1.365942791011284 6.420745024091894 1.758934230516731 22
-1.350696586045542 6.465419886026010 1.769804630411037 33
-1.321473394622388 6.432016883479143 1.759451868606936 20
-1.301306465958520 6.447952531298466 1.762557697148166 26
nan nan nan 0
-1.253658503025881 6.449513886397130 1.760487144787346 100
nan nan nan 0
-1.208246850295558 6.456209947348915 1.759969506697141 94
-1.183959429807202 6.450887611629866 1.757381316246116 80
-1.158940713932342 6.447578192141482 1.755310763885296 20
-1.162998026276940 6.582253036671221 1.791027792109444 24
-1.190425639806935 6.877515244211228 1.870226419910815 20
-1.177787982495260 6.956117108137258 1.890414305428812 20
-1.155710406166275 6.973526968119364 1.894037772060247 18
-1.136926805597544 7.011843709165277 1.903355257683938 20
-1.112141435687872 7.013861591198174 1.902837619593733 20
-1.094252924804865 7.044046247540868 1.910084552856603 18
-1.071612870075972 7.069019898142337 1.915778571848858 20
-1.044283697672975 7.063344683880383 1.913190381397833 20
-1.018112693046039 7.065212631001747 1.912672743307628 16
-0.997145334488233 7.068202328662956 1.912672743307628 16
-0.969918128057661 7.062240142178947 1.910084552856603 15
-0.947519572144202 7.073076665355368 1.912155105217423 15
-0.921589085909243 7.076501989706773 1.912155105217423 16
-0.895425104233994 7.068176620736755 1.909049276676193 15
-0.870691768205629 7.080998096247053 1.911637467127218 15
-0.848441896510810 7.083698507313858 1.911637467127218 15
-0.824379144208613 7.092373762790613 1.913190381397833 15
-0.801288815888823 7.098907829053750 1.914225657578243 7
nan nan nan 0
-0.759637680278657 7.179252805061729 1.934413543096240 78
-0.731034568169066 7.147267843704020 1.925096057472549 54
-0.706349790542859 7.165279474340758 1.929237162194190 63
-0.679535560089477 7.162050604602093 1.927684247923575 65
-0.657031998165999 7.164150081739866 1.927684247923575 65
-0.632190160159762 7.168324287319185 1.928201886013780 63
-0.606563336446828 7.178293197726733 1.930272438374600 65
-0.581970543726364 7.186143408888528 1.931825352645215 61
-0.556136585028013 7.178500684042755 1.929237162194190 63
-0.531360541504535 7.184251407668261 1.930272438374600 65
-0.508078201821173 7.193682166108665 1.932342990735420 63
-0.482224788441833 7.203206195694948 1.934413543096240 65
-0.461220316984996 7.210389011360669 1.935966457366855 61
-0.434441060331685 7.206245985905819 1.934413543096240 63
-0.408244301234833 7.211647416400076 1.935448819276650 65
-0.382013780852755 7.216953569150936 1.936484095457060 65
-0.358462270190980 7.225898606974306 1.938554647817880 65
-0.332330200225045 7.234883169094700 1.940625200178701 63
-0.310613682120952 7.230047151333279 1.939072285908085 61
-0.284036304127995 7.229206682296543 1.938554647817880 65
-0.260339598787587 7.237831244629464 1.940625200178701 63
-0.235324078533520 7.246419239260675 1.942695752539521 65
-0.210363697339090 7.258782771367764 1.945801581080751 65
-0.183659746171568 7.255642570920957 1.944766304900341 63
-0.160778969340805 7.252320994758096 1.943731028719931 63
-0.135606966384447 7.260564093631545 1.945801581080751 67
-0.109168731907528 7.272602154435113 1.948907409621981 67
-0.082600242004647 7.280680338531434 1.950977961982801 67
-0.059679399469564 7.275108545762826 1.949425047712186 69
-0.034302375146554 7.279136203697531 1.950460323892596 69
-0.007630868971797 7.286940438010716 1.952530876253417 69
0.017843109665723 7.302377447263638 1.956671980975057 71
0.034130917143916 10.864172609592000 2.508204255934095 38
0.072079597580054 10.867884676741104 2.509104060151470 38
0.108234724460881 10.879277759044149 2.511803472803597 38
0.146366961757848 10.890525053988014 2.514502885455723 38
0.188182394307943 10.889882764543765 2.514502885455723 37
0.226274975097465 10.893056180174140 2.515402689673099 37
0.264817449946922 10.913629802486152 2.520351612868664 33
0.302911513903670 10.912638927512214 2.520351612868664 34
0.341610601522197 10.930992977453691 2.524850633955541 29
0.379629466146924 10.925838808873992 2.523950829738165 20
0.413730706482864 10.918750224942102 2.522601123412102 18
0.422347519648351 10.204610717943799 2.357936951632393 10
0.489597736183197 10.907808660716972 2.520801514977351 12
0.528706051018103 10.927444286551459 2.525750438172916 13
0.568348345809523 10.917648664748269 2.523950829738165 12
0.606346486577144 10.913652505301274 2.523500927629478 12
0.641086546913464 10.919475318984897 2.525300536064229 12
0.585299166929619 9.407866746890434 2.176176499722550 2
0.611234357510293 9.300760901125848 2.151881785853413 8
0.648675809471566 9.370501870054131 2.168528163874859 3
0.685480608437830 9.424545051974123 2.181575325026803 2
0.709337148140517 9.303565723320899 2.154131296396852 3
0.870710698180302 10.917252595407748 2.528449850825043 10
0.908975427361032 10.916088755230307 2.528899752933730 12
0.947074150233820 10.912849334320098 2.528899752933730 11
0.767658181797637 8.500891125026989 1.970571236052257 27
1.022059843906465 10.913911050482456 2.530699361368481 11
1.060904160862999 10.918035323693049 2.532498969803232 11
1.043804595720790 10.347914496895266 2.401127554066415 16
1.137385388224876 10.894658531512784 2.528899752933730 11
1.173715896056508 10.892764447920513 2.529349655042418 10
1.211947122914016 10.890537836668056 2.529799557151106 11
1.251186905702589 10.880214734960942 2.528449850825043 10
1.290305258013444 10.885456953362684 2.530699361368481 12
1.324037602865657 10.861774084695320 2.526200340281604 12
1.360488875723075 10.845484640498411 2.523500927629478 11
1.398836998707661 10.844535029041014 2.524400731846853 11
1.437707158378169 10.847313490791592 2.526200340281604 11
1.476088168400838 10.846090750993202 2.527100144498979 11
1.510704760909136 10.817712030838040 2.521701319194727 11
1.548456418988682 10.812372781922770 2.521701319194727 12
1.586472205014108 10.808829870045850 2.522151221303414 13
1.624771844841510 10.807080363115139 2.523051025520790 12
1.660410553908162 10.787860592377866 2.519901710759976 14
1.354587698928146 8.620682492200439 2.014661642703655 22
1.731921312382368 10.776611152668758 2.519901710759976 11
1.770160015404696 10.774345884644243 2.520801514977351 11
1.808726640333597 10.773866769058602 2.522151221303414 10
1.848299520680850 10.779011743108235 2.524850633955541 13
1.884233781526905 10.762896572424768 2.522601123412102 14
1.923162816983457 10.763927244478351 2.524400731846853 14
1.958278117854032 10.743728501082654 2.521251417086039 13
1.995768798450680 10.736827380328528 2.521251417086039 13
2.033960798336856 10.733624769280254 2.522151221303414 12
2.069198750581663 10.714979193375743 2.519451808651288 13
2.107716931101082 10.713427325577831 2.520801514977351 12
2.145866627704361 10.709826276503103 2.521701319194727 12
2.183627340714409 10.704179971102983 2.522151221303414 13
2.222278440905794 10.712144848495777 2.525750438172916 13
2.257242241804021 10.692882071005650 2.523051025520790 22
2.278596482793744 10.610630874217167 2.505504843281968 20
2.300235812410281 10.532169517587830 2.488858465260523 9
1.759921075311468 7.925397820595387 1.874292184793083 18
1.787146067697764 7.917305351717625 1.873842282684395 23
nan nan nan 0
1.833039354779080 7.870794234598759 1.865744044728016 20
1.860528038225473 7.858333994550730 1.864394338401953 23
1.883847136051193 7.834739027725101 1.860345219423764 23
1.908432109590706 7.822769238918260 1.858995513097700 22
1.927763016242425 7.783902837426502 1.851347177250009 22
1.951121585389005 7.762006701487623 1.847747960380507 22
1.971460827702460 7.728712866106110 1.841449330858879 22
1.996474040033087 7.714237765732840 1.839649722424128 25
2.021905079998184 7.701567171575626 1.838300016098065 28
2.041921345045081 7.674104572574086 1.833351092902500 51
2.073773084847572 7.685744736267984 1.837850113989377 67
2.105730906468773 7.697255810613674 1.842349135076254 66
2.136231961557522 7.703003601068163 1.845498449837069 60
2.169962736648902 7.719888299117006 1.851347177250009 62
2.199032456803337 7.719763418954736 1.853146785684760 66
2.227046891035464 7.715784949543471 1.854046589902136 66
2.259435903544457 7.726668208849643 1.858545610989013 68
2.290821020403023 7.733682156163352 1.862144827858515 66
2.323402562267581 7.744304053615326 1.866643848945392 68
2.352687085330433 7.743605008333829 1.868443457380143 68
2.384287043188809 7.750246158766199 1.872042674249645 66
2.412096494659425 7.753882163668139 1.874742086901771 67
2.446172083104883 7.767720147513518 1.880140912206024 66
2.479363029397780 7.773555048661198 1.883740129075526 62
2.510074502264296 7.775980185705788 1.886439541727652 62
2.538870685613169 7.776876320577914 1.888689052271091 60
2.572114020540313 7.786470598688157 1.893188073357968 57
2.604837497695143 7.794079076235866 1.897237192336158 61
2.638269511628959 7.803399858943827 1.901736213423035 63
2.668014736226459 7.801518617691216 1.903535821857786 63
2.700327022341523 7.806891437471822 1.907135038727287 66
2.733996153783806 7.815812449928272 1.911634059814165 66
2.767760389746501 7.824593308359675 1.916133080901042 63
2.802931702423643 7.836903279037171 1.921531906205295 68
2.820993120733354 7.801414955548680 1.915233276683666 45
2.829460660749117 7.744426882873734 1.903535821857786 42
2.842973910334505 7.697941929276114 1.894537779684031 40
2.853471245619544 7.644154693393703 1.883740129075526 42
2.866379420080180 7.597681694289384 1.874742086901771 42
2.874685064547746 7.532000314766139 1.861245023641139 43
2.885532234734194 7.481919362810477 1.851347177250009 41
2.894884469567651 7.436497399471057 1.842349135076254 41
2.903706664522905 7.382822682832715 1.831551484467749 43
2.921229828823938 7.344457397963790 1.824802952837433 45
2.925779292766709 7.281776739320675 1.811755791685489 42
2.933996836755909 7.236430270408310 1.802757749511734 42
2.942991436827979 7.186470258098865 1.792859903120604 43
2.957389446625050 7.146824803908148 1.785661469381600 43
2.965787637333052 7.096900960666296 1.775763622990470 42
2.970842831713695 7.039824388689853 1.764066168164589 43
2.984703182545145 7.004312685210302 1.757767538642961 41
2.987569276340015 6.943729150411261 1.745170279599705 43
2.998589827462580 6.902872774549604 1.737521943752013 45
3.006599301541883 6.858979969801060 1.728973803686946 42
3.010020142408643 6.802109723015107 1.717276348861066 43
3.020642882942423 6.765399260960812 1.710527817230749 45
3.031429020165132 6.726387671479715 1.703329383491746 45
3.039918086558435 6.679757730100881 1.694331341317991 45
3.046135140482219 6.631917418387636 1.684883397035549 42
3.054183284538769 6.591720793083256 1.677235061187857 46
3.065618165691080 6.556305415667834 1.670936431666229 46
3.072685260276070 6.512078812424614 1.662388291601163 48
3.082832046056522 6.474921123921947 1.655639759970847 51
3.093600878332742 6.439528821349228 1.649341130449218 45
3.093960463852205 6.383097354718189 1.637643675623337 41
3.100812889322018 6.340747360681803 1.629545437666958 41
3.115167440106021 6.314156280773589 1.625496318688769 41
3.121559474976617 6.271841028966447 1.617398080732390 42
3.129443022710438 6.233041590141313 1.610199646993386 42
3.131611950973980 6.186118053738141 1.600751702710943 45
3.139893087698339 6.149115488296598 1.594003171080628 42
3.147061940713991 6.110398339458702 1.586804737341624 43
3.157592207198576 6.078623758254174 1.581405912037371 41
3.168843473321209 6.048576560143833 1.576456988841806 45
3.170819863020228 6.001294864489291 1.567009044559364 43
3.170672250658929 5.950633839201640 1.556661296059546 45
3.181278374945693 5.920646975880570 1.551712372863981 43
3.188928818455910 5.885518613742545 1.545413743342353 42
3.196372941470591 5.850409275037369 1.539115113820724 42
3.205491576243140 5.818733719717164 1.533716288516472 42
3.213481903677214 5.785362458002663 1.527867561103531 46
3.219374072375397 5.748606046711805 1.521119029473215 42
3.221216462478564 5.705091568622902 1.512570889408148 47
3.231443793268742 5.679134536096481 1.508521770429959 43
3.233794223288200 5.637393382107318 1.500423532473580 42
3.236868380497698 5.597392366064108 1.492775196625888 37
3.247554329283107 5.570907425553422 1.488726077647699 38
3.258094926523904 5.544416270280855 1.484676958669509 41
3.265510779043849 5.512889583158350 1.479278133365256 43
3.268750350964449 5.474686155481251 1.472079699626253 44
3.269753514613368 5.433188219964450 1.463981461669873 41
3.278592325516320 5.405079774498744 1.459482440582996 43
3.284225446811069 5.371988108927091 1.453633713170056 39
3.292734467395877 5.343900482926697 1.449134692083178 39
3.298003373825297 5.310852602965260 1.443285964670238 40
3.300206082452094 5.277333721868335 1.436987335148610 42
3.310295205425896 5.252592517539373 1.433388118279108 43
3.316984102169199 5.220686453437514 1.427989292974855 41
3.320476518606200 5.186099820369328 1.421690663453227 41
3.320598552751035 5.146640219328300 1.414042327605536 38
3.325796862985786 5.115412271711663 1.408643502301283 38
3.339361073859265 5.097251600292451 1.406843893866532 38
3.346397501787937 5.069300604404524 1.402344872779654 38
3.354358881274301 5.042985373815496 1.398295753801465 40
3.354582975919457 5.005344873611248 1.391097320062461 43
3.358079426690900 4.974810774859698 1.385698494758208 44
3.360081460673630 4.940499224716332 1.379399865236580 43
3.370697340047506 4.919094968147132 1.376700452584454 45
3.374561973357544 4.888054759818869 1.371301627280201 45
3.378251138338467 4.857047743420802 1.365902801975948 43
3.381765114620050 4.826074765168826 1.360503976671696 42
3.385390819512367 4.797319615801798 1.355555053476130 39
3.398728527988077 4.780708344041726 1.354205347150067 41
3.406318144707428 4.756140849248002 1.350606130280566 44
3.406936533327677 4.722096653106591 1.344307500758937 42
3.402776085105144 4.681800905702544 1.336209262802558 45
3.409888197902055 4.657315637068909 1.332610045933056 45
3.419184331474242 4.635974570129496 1.329910633280930 45
3.428373109570626 4.614625466645157 1.327211220628804 45
3.425778453241707 4.577666679843814 1.320012786889800 45
3.427659988505129 4.547007052469280 1.314613961585547 45
3.438797212811441 4.528806487731788 1.312814353150796 42
3.447481420155735 4.507487848054962 1.310114940498670 41
3.453680215189819 4.483076358385629 1.306515723629168 43
3.454972047423752 4.452518272664793 1.301116898324915 42
3.459692897758094 4.426612274525832 1.297067779346726 45
3.463069735293255 4.399196519100562 1.292568758259848 46
3.471140365822579 4.377919326805669 1.289869345607722 49
3.479104738754560 4.356639505452644 1.287169932955596 45
3.476437514783385 4.323816243765002 1.280871303433967 47
3.476792687622091 4.293481403806380 1.275472478129715 47
3.486831909289010 4.275278313439600 1.273672869694964 46
3.491838774030753 4.251034096849141 1.270073652825462 46
3.504172031323584 4.235816345983249 1.269173848608086 46
3.502720144067865 4.204095292747118 1.263325121195146 45
3.503594949373790 4.175421867911144 1.258376197999581 45
3.508085912142716 4.151259081369399 1.254776981130079 46
3.514977034510331 4.130084043863913 1.252077568477953 47
3.521763164785230 4.108911587623562 1.249378155825826 49
3.524471635318073 4.086022335608460 1.245778938956325 50
3.518265441132469 4.050155875744607 1.238580505217321 51
3.529940105610547 4.032218099393570 1.237230798891257 48
3.537550042971996 4.012562885600622 1.234981288347819 51
3.546359670707171 3.994361029039378 1.233181679913068 52
3.544694204180147 3.964524720667070 1.227782854608815 50
3.544097052386829 3.938882677347328 1.223283833521938 46
3.552590707468327 3.920711102985381 1.221484225087187 46
3.559054236325506 3.899028151202696 1.218784812435061 49
3.564729871579531 3.877972826503992 1.216085399782934 46
3.566981650053432 3.854687946439519 1.212486182913432 49
3.564472810757387 3.825105187112039 1.207087357609180 50
3.575801067322610 3.809173442228272 1.206187553391804 51
3.581043531811624 3.788171527052212 1.203488140739678 51
3.585525491968291 3.767805379387771 1.200788728087551 52
3.586520897757054 3.742603660279928 1.196739609109362 55
3.589386424249047 3.718216925062651 1.193140392239860 55
3.594193457108011 3.697281118200259 1.190440979587734 58
3.597614655636906 3.677613187886934 1.187741566935607 55
3.613165177661241 3.667809303892417 1.188641371152983 55
3.605359837400573 3.634422341823246 1.181892839522667 54
3.615269882466638 3.619057767912811 1.180993035305291 51
3.618079147462855 3.594162361246867 1.177393818435789 51
3.629215757927203 3.580142455298881 1.176943916327102 55
3.637661964246438 3.565994907490305 1.176044112109726 55
3.636123838325263 3.539682123025036 1.171545091022849 58
3.640050898166272 3.518841462600013 1.168845678370722 55
3.646688503886452 3.500715702005718 1.167046069935971 57
3.654654508486978 3.483931172032886 1.165696363609908 59
3.654056596814523 3.459095556112291 1.161647244631719 55
3.649070370973478 3.430302467784177 1.156248419327466 57
3.652474996374995 3.409565234755572 1.153549006675340 57
3.659229598455639 3.390857129021898 1.151749398240589 57
3.662439596962757 3.370146039746414 1.149049985588463 56
3.670132852521708 3.355993445443304 1.148150181371087 55
3.667397881759876 3.330061681177056 1.143651160284210 55
3.670315910515106 3.309409951425626 1.140951747632083 55
3.674586387025090 3.290078433645498 1.138702237088645 52
3.683135796055539 3.274642015788376 1.137802432871269 51
3.691622247944394 3.259186032039572 1.136902628653894 54
3.691253522551380 3.236002906223956 1.133303411784392 54
3.696647432562319 3.217980252011456 1.131503803349641 54
3.705468050692805 3.201861508941477 1.130603999132265 54
3.713664141640134 3.186369576036017 1.129704194914890 53
3.718277472358446 3.168980890183587 1.127904586480139 53
3.712953450703670 3.142134823842671 1.122955663284574 55
3.719968514946529 3.124744841602543 1.121605956958511 54
3.723370588693403 3.105499735166946 1.119356446415072 55
3.724644349511304 3.085676188228645 1.116657033762946 56
3.732382691615055 3.070180002548573 1.115757229545570 56
3.724965218506715 3.042340272725241 1.110358404241318 57
3.723453482310074 3.019499671508685 1.106759187371816 56
3.735488692875365 3.007706145482309 1.107209089480504 53
3.735309870581989 2.986130637560700 1.104059774719689 56
3.747237024392081 2.974285301852810 1.104509676828377 51
3.739229318218317 2.946712650028587 1.099110851524124 51
3.736703765135664 2.924687885904633 1.095511634654623 53
3.748428829652989 2.912822277270229 1.095961536763310 55
3.757030711722554 2.898529711683128 1.095511634654623 52
3.760937282806174 2.880657695475208 1.093712026219872 50
3.758560133386243 2.858075538996448 1.090112809350370 51
3.759181926195009 2.837893470595747 1.087413396698244 47
3.765946324703556 2.822416782264111 1.086513592480868 49
3.772648518211041 2.806927476934920 1.085613788263493 46
