# This PCD file was generated using the MATLAB® pcwrite function
# from Computer Vision Toolbox®.
# .PCD v.7 - Point Cloud Data file format
VERSION .7
FIELDS x y z intensity
SIZE 8 8 8 1
TYPE F F F U
COUNT 1 1 1 1
WIDTH 971
HEIGHT 1
VIEWPOINT 0 0 0 1 0 0 0
POINTS 971
DATA ascii
-1.508152812596259 -0.734272364839118 0.205959190354699 51
-1.501641115196967 -0.724951922592592 0.204740496920648 50
-1.496999842467889 -0.716278629776076 0.203765542173407 49
-1.503202675711128 -0.712487487427553 0.204253019547027 50
-1.512867582536809 -0.710611818277955 0.205227974294268 50
-1.511739484054984 -0.703651235534946 0.204740496920648 50
-1.503370857521847 -0.693381635987917 0.203278064799786 50
-1.502171063926627 -0.686479477007795 0.202790587426165 48
-1.511791625497966 -0.684506891781956 0.203765542173407 47
-1.510312750278508 -0.678127882274001 0.203278064799786 48
-1.519925672129784 -0.676078882384848 0.204253019547027 48
-1.515010132283611 -0.667567470334833 0.203278064799786 50
-1.513692463851182 -0.660686841500185 0.202790587426165 49
-1.515989469376994 -0.655399043628698 0.202790587426165 49
-1.518268003049539 -0.650103259926694 0.202790587426165 48
-1.520528037105604 -0.644799554921630 0.202790587426165 50
-1.519109040295828 -0.637950762484500 0.202303110052545 49
-1.521437043166015 -0.632378664524129 0.202303110052545 48
-1.519963777440740 -0.625553007885409 0.201815632678924 50
-1.532949922939436 -0.625273189998763 0.203278064799786 48
-1.531441843843325 -0.618431771966083 0.202790587426165 50
-1.526218208690976 -0.610134763692836 0.201815632678924 50
-1.524647038904343 -0.603342672650943 0.201328155305304 49
-1.530545128496035 -0.599197847161905 0.201815632678924 47
-1.536329393242473 -0.595286021272365 0.202303110052545 48
-1.538397969390680 -0.589919604215438 0.202303110052545 49
-1.536735878233926 -0.583137454597979 0.201815632678924 50
-1.536903637226727 -0.577071903172983 0.201571893992114 51
-1.537047798054027 -0.571012294419858 0.201328155305304 49
-1.538932891848447 -0.565912120623282 0.201328155305304 48
-1.544629908203813 -0.561894026564339 0.201815632678924 50
-1.539013782352335 -0.554079055566533 0.200840677931683 49
-1.537198360995611 -0.547371714631427 0.200353200558062 50
-1.542844447784630 -0.543321297234041 0.200840677931683 50
-1.548480942031311 -0.539238116278132 0.201328155305304 50
-1.548569893265256 -0.532913072710395 0.201084416618493 51
-1.546662077048993 -0.526225510008860 0.200596939244873 51
-1.548398599651669 -0.521093700367161 0.200596939244873 51
-1.550208122740173 -0.515685605922811 0.200596939244873 51
-1.555770321447549 -0.511511255297662 0.201084416618493 51
-1.563210155561012 -0.507917768893078 0.201815632678924 50
-1.551743142723771 -0.498210218963192 0.200109461871252 54
-1.553472767179427 -0.492790589298834 0.200109461871252 54
-1.557077718191281 -0.487958578711734 0.200353200558062 50
-1.564460472416750 -0.484281413682954 0.201084416618493 51
-1.564076014046504 -0.478783086973988 0.200840677931683 50
-1.560037248503252 -0.471597271569717 0.200109461871252 54
-1.563657520199515 -0.466443731386374 0.200353200558062 47
-1.563371957396744 -0.460421900103667 0.200109461871252 38
-1.566875780071904 -0.455516064316289 0.200353200558062 50
-1.560823891256723 -0.447853877486419 0.199378245810821 58
nan nan nan 0
nan nan nan 0
nan nan nan 0
-1.624391443427826 -0.441641839519776 0.206690406415130 1
-1.625923164791413 -0.435968964595675 0.206690406415130 1
-1.627435074794345 -0.430290777527327 0.206690406415130 1
-1.724972388211088 -0.449643158085468 0.218877340755645 1
-3.087761103723688 -0.793376771808618 0.391444331017334 2
-5.564984227115709 -1.410224599973418 0.704892282255373 2
-5.535205666948667 -1.382134215378051 0.700504985892788 4
-5.520720235530858 -1.358062483169316 0.698067599024685 6
-5.517710047153750 -1.336913490407225 0.697092644277444 8
-5.535628735177493 -1.321836117797081 0.698798815085116 14
-5.542141485723951 -1.302959423863053 0.699042553771926 12
-5.554616079345976 -1.284426603133766 0.700017508519167 6
-3.124071058134411 -0.710918416739272 0.393394240511816 2
-5.559356032090594 -1.245719970131099 0.699530031145547 6
-5.550100608629434 -1.223315615053748 0.697823860337874 10
-5.552396923046566 -1.203514180564697 0.697580121651064 10
-5.566271628951097 -1.186194068763513 0.698798815085116 10
-5.560663660816994 -1.164722123575678 0.697580121651064 10
-5.566639760303220 -1.145704865554153 0.697823860337874 10
-5.564767933578121 -1.125086525879217 0.697092644277444 6
-3.173747533234133 -0.630146035118564 0.397294059500781 1
-3.133062534396559 -0.610708288081964 0.391931808390954 4
-5.599641307006213 -1.071227669842579 0.700017508519167 6
-5.591457065299791 -1.050453564964778 0.698555076398305 6
-5.528713964210429 -1.018699192056687 0.690267961046755 4
-3.008348783884501 -0.543455870676683 0.375357577687854 2
-2.951586676108735 -0.522569291464001 0.368045417083545 4
nan nan nan 0
-2.896451093775456 -0.491978230246878 0.360733256479237 41
-2.900024779833892 -0.482696473273091 0.360976995166047 38
-2.884058527002431 -0.469698757450969 0.358783346984754 43
-2.873998075847489 -0.457253566225303 0.357320914863892 44
-2.867730631037630 -0.445998413132893 0.356345960116651 45
-2.861343795750731 -0.435292006659359 0.355371005369410 43
-2.870699988459275 -0.426468208625754 0.356345960116651 45
-2.883958447134004 -0.418154074055043 0.357808392237513 44
-2.877538380460039 -0.406972685653831 0.356833437490272 45
-2.878802720685331 -0.397930638759587 0.356833437490272 42
-2.874272222830568 -0.387084482971558 0.356102221429841 46
-2.877639942427162 -0.376804881147178 0.356345960116651 45
-2.882876060625595 -0.367259468170291 0.356833437490272 45
-2.888018083264027 -0.358186145098888 0.357320914863892 45
-2.885309112328657 -0.347627996861726 0.356833437490272 44
-2.882620459326156 -0.336590023890794 0.356345960116651 45
-2.889695280597527 -0.327195775562252 0.357077176177082 46
-2.898601655329352 -0.318984506304756 0.358052130924323 46
-2.903645312000203 -0.309285064917142 0.358539608297944 51
-2.896808636293534 -0.298334113413739 0.357564653550703 48
-2.897832368339203 -0.288220546694317 0.357564653550703 49
-2.898869285271948 -0.277597524192983 0.357564653550703 46
-2.903774022904611 -0.267841549138517 0.358052130924323 49
-2.910578136342560 -0.258738134358061 0.358783346984754 52
-2.897618293616313 -0.247394653849850 0.357077176177082 51
-2.902462581810951 -0.237095929358721 0.357564653550703 48
-2.907230626666359 -0.227272424446248 0.358052130924323 51
-2.913868867716950 -0.218583466155060 0.358783346984754 54
-2.920554224403054 -0.208835584323909 0.359514563045185 51
-2.915323846862130 -0.198235662390520 0.358783346984754 52
-2.906093172601548 -0.187419291135774 0.357564653550703 51
-2.920599558889776 -0.178119879232206 0.359270824358375 54
-2.921203520006328 -0.167923999081407 0.359270824358375 46
-2.927718505674802 -0.158047089260125 0.360002040418806 49
-2.930234923915091 -0.147926567272111 0.360245779105616 52
-2.920794911650377 -0.137741191484068 0.359027085671564 51
-2.929190735394321 -0.127891229466194 0.360002040418806 51
-2.933586299669544 -0.117824997148042 0.360489517792426 51
-2.939930990559774 -0.107802375581568 0.361220733852857 52
-2.932353376284274 -0.097276180182013 0.360245779105616 52
-2.934659287205040 -0.087098654312173 0.360489517792426 51
-2.940898675482519 -0.077010142059112 0.361220733852857 54
-2.951072480877901 -0.066969203019658 0.362439427286909 51
-2.949283594489578 -0.057659018671258 0.362195688600098 54
-2.951451730382182 -0.047395619755020 0.362439427286909 48
-2.943659448440441 -0.036993062848842 0.361464472539667 49
-2.955680707842456 -0.026825643728393 0.362926904660529 49
-2.973618947947314 -0.017127005026853 0.365120552841822 55
-2.985571139209156 -0.006774057660488 0.366582984962684 55
-2.963741183747299 0.003103623644501 0.363901859407770 25
-2.959742150224178 0.013430976029142 0.363414382034150 31
nan nan nan 0
-3.235485781996888 0.037271769227909 0.397294059500781 2
-3.249230048398552 0.048774058655629 0.399000230308453 5
-3.262933267912685 0.060372752572748 0.400706401116125 1
nan nan nan 0
nan nan nan 0
nan nan nan 0
nan nan nan 0
nan nan nan 0
-3.276888949422496 0.127603717336859 0.402656310610607 1
-3.272432663142999 0.139444235333058 0.402168833236987 5
-3.275891946024912 0.151049175749394 0.402656310610607 1
nan nan nan 0
nan nan nan 0
nan nan nan 0
nan nan nan 0
nan nan nan 0
-3.339429803446468 0.222975533438019 0.410943425962157 1
-3.295066546886267 0.231569346409272 0.405581174852331 5
-3.329872931965626 0.245699225827738 0.409968471214916 1
nan nan nan 0
nan nan nan 0
nan nan nan 0
nan nan nan 0
nan nan nan 0
-3.343759270079629 0.317255972324168 0.412405858083019 1
-3.322932982112965 0.326401974558274 0.409968471214916 3
nan nan nan 0
nan nan nan 0
nan nan nan 0
-3.349614711057649 0.376311474486092 0.413868290203881 1
nan nan nan 0
nan nan nan 0
-3.353299393585102 0.412921613747948 0.414843244951122 1
-3.375544408240498 0.427028986062701 0.417768109192846 2
nan nan nan 0
nan nan nan 0
-3.394487715990666 0.465590558421507 0.420692973434569 1
nan nan nan 0
nan nan nan 0
nan nan nan 0
-3.364103525476737 0.509373415890958 0.417768109192846 1
nan nan nan 0
nan nan nan 0
nan nan nan 0
-3.384178798416047 0.560247167068545 0.421180450808190 2
nan nan nan 0
nan nan nan 0
nan nan nan 0
nan nan nan 0
nan nan nan 0
nan nan nan 0
-3.396779559921557 0.647970355742529 0.424592792423534 4
-3.378908062406332 0.656793193718470 0.422642882929051 1
nan nan nan 0
nan nan nan 0
nan nan nan 0
nan nan nan 0
nan nan nan 0
-3.403217388568955 0.735801644046378 0.427517656665257 4
-3.396750658708793 0.746824067994284 0.427030179291637 2
nan nan nan 0
nan nan nan 0
nan nan nan 0
nan nan nan 0
nan nan nan 0
-3.422957375152435 0.827468183086860 0.432392430401463 4
-3.435471108727496 0.843196888557108 0.434342339895946 4
nan nan nan 0
nan nan nan 0
nan nan nan 0
nan nan nan 0
-3.546907316329281 0.936471100112511 0.450429093225425 1
-3.451574818037534 0.924201050506666 0.438729636258531 4
-3.463817705998968 0.939800211514640 0.440679545753013 3
nan nan nan 0
nan nan nan 0
nan nan nan 0
nan nan nan 0
-3.523146966880489 1.022235335789626 0.450429093225425 1
-3.462421566035422 1.017732913429291 0.443116932621116 4
nan nan nan 0
nan nan nan 0
nan nan nan 0
nan nan nan 0
nan nan nan 0
-3.520022992097993 1.114588858884910 0.453353957467149 1
-3.587945429616303 1.149891301443137 0.462616027565940 1
nan nan nan 0
nan nan nan 0
nan nan nan 0
nan nan nan 0
nan nan nan 0
nan nan nan 0
-6.727964893027207 2.337659933980113 0.874534408275338 4
-6.667324318534227 2.342704903427879 0.867709725044650 4
-6.629588547570168 2.354173344536577 0.863809906055685 4
-6.602647346692043 2.370592625992278 0.861372519187582 4
-6.486106043320281 2.354341543874629 0.847235675352585 2
-6.451758043829781 2.367394416931468 0.843823333737241 2
-6.402923080404712 2.373596225001188 0.838461082627415 2
-6.383445304802939 2.391753185351598 0.836998650506553 2
-6.356493113747548 2.406991232247053 0.834561263638450 2
-6.259061031393033 2.395111156589270 0.822861806671556 2
-6.188128910848358 2.391523500821937 0.814574691320006 6
-6.150157391420355 2.401556643539482 0.810674872331041 6
-6.152816426829213 2.427381102434924 0.812137304451903 2
-3.617985588401117 1.441966159658187 0.478215303521799 1
-6.146769023754906 2.474724638673136 0.813599736572765 4
-6.134415467357534 2.494670184169583 0.813112259199144 4
-6.155490932104578 2.527061267336637 0.817012078188109 4
-6.163135828546600 2.555375263394559 0.819205726369401 21
-6.165164690799789 2.581473243896931 0.820668158490263 23
-6.167086317147917 2.607616468890383 0.822130590611125 23
-6.162504510399337 2.633617399401258 0.822861806671556 27
-6.166032491615494 2.660617778422492 0.824567977479228 25
-6.183125914692957 2.691066426947582 0.827980319094572 25
-6.188233839221208 2.719021472293233 0.829930228589054 27
-6.189592568104479 2.745435135745057 0.831392660709916 23
-6.198089272400677 2.775136181002240 0.833830047578019 23
-6.196088818103114 2.798943366034811 0.834805002325260 25
-6.220598988603069 2.836201572904720 0.839436037374656 12
-6.228193836911005 2.867283499659138 0.841873424242759 4
nan nan nan 0
nan nan nan 0
nan nan nan 0
nan nan nan 0
nan nan nan 0
nan nan nan 0
nan nan nan 0
-3.651756258176477 1.804810356379699 0.500151785334725 1
nan nan nan 0
nan nan nan 0
nan nan nan 0
nan nan nan 0
-3.672621411002152 1.895581260463540 0.507463945939034 1
nan nan nan 0
nan nan nan 0
nan nan nan 0
nan nan nan 0
nan nan nan 0
nan nan nan 0
nan nan nan 0
nan nan nan 0
nan nan nan 0
nan nan nan 0
nan nan nan 0
nan nan nan 0
nan nan nan 0
nan nan nan 0
nan nan nan 0
nan nan nan 0
-3.780220233906159 2.241854233200725 0.539637452597993 1
nan nan nan 0
nan nan nan 0
nan nan nan 0
nan nan nan 0
nan nan nan 0
nan nan nan 0
-16.974923991995379 10.631842931803408 2.459323349915876 3
-16.937708517373103 10.691031701433920 2.459323349915876 3
-16.900286662117761 10.750090204217031 2.459323349915876 3
-16.779097638980822 10.755454699133518 2.447136415575362 3
nan nan nan 0
nan nan nan 0
-16.416561547402125 10.767266699423709 2.410575612553817 3
nan nan nan 0
nan nan nan 0
-13.503885734039550 9.060556602708099 1.996707322349936 2
nan nan nan 0
-13.317194997797618 9.067355330441378 1.978183182152354 2
-13.246176157107794 9.086835200574923 1.972333453668907 2
nan nan nan 0
nan nan nan 0
-13.046288200731034 9.152086731518439 1.956734177713048 2
nan nan nan 0
nan nan nan 0
nan nan nan 0
-3.935669274310329 2.843718518803535 0.596184827937981 6
-3.911274275706167 2.846925362311146 0.593991179756689 10
-3.895906002808115 2.854505942218240 0.593016225009448 10
-3.873140810662045 2.858657179769502 0.591066315514965 10
-3.874289966461064 2.880450318133955 0.592772486322637 40
-3.822900241054684 2.863017884814781 0.586435280465570 30
-3.804959455880878 2.870367412957072 0.585216587031518 34
-3.787014038806201 2.877626648847703 0.583997893597467 36
-3.763832419415893 2.881833038667500 0.582047984102984 34
-3.742746559470167 2.886467663306719 0.580341813295312 34
-3.715907281825423 2.885470707305151 0.577660687740399 32
-3.693303399207079 2.888640355118116 0.575710778245917 32
-3.678013772640064 2.898471526742842 0.574979562185486 38
-3.661654440584980 2.906356046389354 0.574004607438245 34
-3.648895000390439 2.916004008510292 0.573517130064624 34
-3.620137140991768 2.913787148471047 0.570592265822901 36
-3.594014922024810 2.914532685317297 0.568154878954798 31
-3.591506708731627 2.933338933059197 0.569373572388849 34
-3.600675735126541 2.959733898495123 0.572298436630573 60
-3.597967889885048 2.978613967079080 0.573517130064624 56
-3.597697694319439 3.000681498330365 0.575223300872296 54
-3.597841447074615 3.022159047174571 0.576929471679968 46
-3.605456638355298 3.050084487035158 0.579854335921692 46
-3.612920490650550 3.078099727444561 0.582779200163415 46
-3.623245564504496 3.108789323136184 0.586191541778759 46
-3.627392047527751 3.134396739069972 0.588628928646862 48
-3.631403722512355 3.160070824330838 0.591066315514965 42
-3.635280175096262 3.185810949163443 0.593503702383068 40
-3.648512959337015 3.218861012563629 0.597403521372033 44
-3.652094690502712 3.244761818131424 0.599840908240136 44
-3.655539875460932 3.270726689003009 0.602278295108239 44
-3.655898616508280 3.294097385108008 0.604228204602721 44
-3.671420884112846 3.330208981983682 0.608615500965306 44
-3.677361938294739 3.359070043405408 0.611540365207030 42
-3.684607011593926 3.389356879203869 0.614708968135564 40
-3.684403788980819 3.412989971913754 0.616658877630046 40
-3.686983466997428 3.439370978736092 0.619096264498149 38
-3.695211018919602 3.471247983214365 0.622508606113493 24
-6.656296587487755 6.294546777086342 1.124854039629511 5
-6.681723050052437 6.362918868455872 1.132897416294251 5
-6.686380120508339 6.409768199118277 1.137284712656836 5
-6.698241835639585 6.466158052566188 1.143134441140284 3
-6.718331181409830 6.531010546112347 1.150446601744592 3
-6.726700575114682 6.584972381750370 1.155808852854419 3
-6.751738893465704 6.655794955620938 1.164095968205969 3
-6.765093694913256 6.715683843369759 1.170433174063036 3
nan nan nan 0
-4.121482771268266 4.148908527933051 0.718054171343129 4
nan nan nan 0
nan nan nan 0
nan nan nan 0
nan nan nan 0
nan nan nan 0
nan nan nan 0
-10.961167094082407 11.578958799835439 1.957709132460289 5
-10.966910193405708 11.666326052505296 1.965996247811839 2
-11.299987051413275 12.105039007299427 2.033268125371481 2
nan nan nan 0
-8.465026689836158 9.189539218025541 1.534091294783997 1
-8.432897639920096 9.219031689602659 1.534091294783997 1
-8.400665837807553 9.248411830187987 1.534091294783997 1
nan nan nan 0
-8.224644321638523 9.182624277291296 1.513617245091932 1
-8.187263874909187 9.205344509797978 1.512642290344691 1
-8.134056322036319 9.210061015273917 1.508742471355726 1
nan nan nan 0
-8.033058217838397 9.224705666119249 1.501917788125037 1
-7.959259891401669 9.204639750393584 1.494118150147108 1
-7.907997650638770 9.206889077368746 1.490218331158143 1
-7.870658791243294 9.228395546228006 1.489243376410902 1
-7.829747897048508 9.242327737747249 1.487293466916420 1
-7.776992857043875 9.245296608912936 1.483393647927455 1
-7.729402899248157 9.254104332761019 1.480468783685732 1
-7.653967708007381 9.229076847670139 1.472181668334182 5
-7.615043622915134 9.250937543135631 1.471206713586940 5
-7.615367846944128 9.317425208814054 1.477543919444008 5
-7.649487710602656 9.422768759277666 1.490218331158143 5
-7.671362750929854 9.517416674422623 1.500942833377796 1
-4.459336735956678 5.574132678368071 0.876484317769821 2
nan nan nan 0
nan nan nan 0
nan nan nan 0
nan nan nan 0
nan nan nan 0
nan nan nan 0
nan nan nan 0
nan nan nan 0
nan nan nan 0
-4.673270792912545 6.276529698217375 0.960817903406183 6
-4.653693029377196 6.295996914961909 0.961305380779803 8
-4.624566667665094 6.300192734555176 0.959599209972131 10
-4.585010978475845 6.292231961720161 0.955943129669977 40
-4.574653475426142 6.324282438766608 0.958380516538080 40
-4.534024613524281 6.314412989499669 0.954480697549115 38
-4.515412130379461 6.335050709577659 0.955211913609546 36
-4.478366210552701 6.329707230098987 0.952043310681012 38
-4.443730713830794 6.329831745980005 0.949605923812909 38
-4.419338585450634 6.342047354110175 0.949118446439289 46
-4.385858770424920 6.338710850285254 0.946437320884375 36
-4.369324807936694 6.362163531478508 0.947656014318427 44
-4.343735857196537 6.372455745577926 0.946924798257996 48
-4.344824644285576 6.422106846276871 0.952043310681012 34
-4.360005248549615 6.493267259666425 0.960330426032562 32
-4.381346587400452 6.574522562595629 0.970079973504974 34
-4.396762730524348 6.645303554459683 0.978367088856524 30
-4.405137075605698 6.708731638635547 0.985435510774023 30
-4.430564662035923 6.796472467687260 0.996160012993675 33
nan nan nan 0
-8.034622350556743 12.515210510156447 1.826090241582730 2
-7.990887163608760 12.543180329089951 1.826090241582730 2
-7.947054610222460 12.570997313329530 1.826090241582730 2
nan nan nan 0
nan nan nan 0
nan nan nan 0
-1.138854251464656 1.858441231646395 0.267625078117704 1
nan nan nan 0
nan nan nan 0
-7.637545487296018 12.761408596196603 1.826090241582730 2
nan nan nan 0
nan nan nan 0
nan nan nan 0
nan nan nan 0
-5.637884560323722 9.796666748635241 1.387848082697819 1
-5.568224674728383 9.754224022494082 1.379073489972649 1
-5.534142155309638 9.773601327764471 1.379073489972649 1
-5.443611937618439 9.692473215059639 1.364936646137652 1
-5.384629051332548 9.666327200152848 1.358599440280584 5
-5.354694334467176 9.692014344232566 1.359574395027825 5
nan nan nan 0
-5.279318864741612 9.715207052897210 1.357624485533343 39
-5.239536858595109 9.718681801114036 1.355674576038861 41
-5.190605706240826 9.708902173188422 1.351774757049896 31
-5.157613492507712 9.728715488135535 1.352018495736706 33
-5.121775167051081 9.743145438952521 1.351531018363086 41
-5.087734039028835 9.760964412111631 1.351531018363086 33
-5.094643252447707 9.858022413181002 1.362499259269549 22
-5.125377411098714 10.002946999960825 1.380048444719890 20
-5.160555398570672 10.158823697672142 1.399060062291093 20
nan nan nan 0
-6.619907416640123 13.260088562452378 1.819753035725662 2
nan nan nan 0
nan nan nan 0
nan nan nan 0
-5.903673565033752 12.245043259476807 1.669122527276900 2
nan nan nan 0
nan nan nan 0
-5.938728392943099 12.654821422182218 1.716407832518097 2
-5.914607884614932 12.718673927136580 1.722257561001544 10
-5.869344630084989 12.737439381957801 1.722013822314734 10
-5.831442633133385 12.772295873016754 1.723963731809216 10
-5.777005591000160 12.770869806629261 1.721038867567493 10
-5.739698287358578 12.807260958798299 1.723232515748785 10
-5.773092132117259 13.003206926763113 1.746875168369384 14
-5.817174586397136 13.226796694564754 1.774173901292137 13
-5.778832957473504 13.258752717323631 1.775880072099809 6
-5.710486084768537 13.227813413666599 1.769055388869121 6
-5.659595097808024 13.236714640276919 1.767592956748259 6
-5.608711606214738 13.245421891668512 1.766130524627397 6
-5.557836343631651 13.253935328825795 1.764668092506535 6
-5.510015091074737 13.269588405573019 1.764180615132915 6
-5.462152298682201 13.285069167370619 1.763693137759294 6
-5.409757918703473 13.289345960531243 1.761743228264812 6
-5.358884353101916 13.297101413797154 1.760280796143950 6
-5.315378521944646 13.323101491334601 1.761255750891191 6
-5.273214737371155 13.352652430916127 1.762718183012053 6
-5.241027174721197 13.407955298742902 1.767592956748259 2
-5.188462804094482 13.411357215442901 1.765643047253777 11
-5.140197269303724 13.425678897052601 1.765155569880156 11
-5.093770268548784 13.430624518877339 1.763693137759294 11
-5.046857607073004 13.448323271313420 1.763693137759294 11
-4.997119557669328 13.458414346929485 1.762718183012053 11
-4.947372587455311 13.468322140436008 1.761743228264812 11
-4.900329228628294 13.485509639932568 1.761743228264812 11
-4.855911952845347 13.510005170742623 1.762718183012053 11
-4.810053496441289 13.530613997914388 1.763205660385674 11
-4.762793535048679 13.547321784828261 1.763205660385674 11
-4.717842809635586 13.563041289576379 1.763205660385674 11
-4.675635238626617 13.594444340591272 1.765155569880156 4
-4.665537375356519 13.736352965221814 1.781242323209635 9
-4.760358241636359 14.177852996199920 1.836327266428762 9
-4.857154189177376 14.635249538984750 1.893362119142371 7
-5.480417737746089 16.708088921532465 2.159037287765593 6
-5.488062766272784 16.920661132771070 2.184142372507053 48
-5.425935982995140 16.930263049338038 2.182923679073002 42
-5.369163802287746 16.946270632267112 2.182679940386191 45
-5.304640907066899 16.947859108942904 2.180486292204899 45
-5.243690483597500 16.960582947536071 2.179755076144468 45
-5.183875332236680 16.976884957780726 2.179511337457658 45
nan nan nan 0
-5.074999573235747 17.034606410397892 2.182436201699381 60
-5.001334350152513 17.015002349263181 2.177561427963175 42
-4.939144650035475 17.022824278828946 2.176342734529124 42
-4.882667773387793 17.039109475456236 2.176342734529124 42
-4.823700602940815 17.057959544382843 2.176586473215934 42
-4.760614492703814 17.073612563067037 2.176342734529124 12
-4.703093400851647 17.097782199537747 2.177317689276365 54
-4.635966545288073 17.074969457357433 2.172442915540159 39
-4.580443095316657 17.106388306507128 2.174392825034641 42
-4.520196002707579 17.120353496567741 2.174149086347831 42
-4.461907414941635 17.141790860078924 2.174880302408262 42
-4.399084194184167 17.145724511189204 2.173417870287400 42
-4.336287914417731 17.149428582255837 2.171955438166538 42
-4.282275941239145 17.175270697261215 2.173417870287400 39
-4.223243991043862 17.193969574578254 2.173905347661021 39
-4.152930973791676 17.166159185016369 2.168543096551194 27
-4.098965127595732 17.205654686093666 2.171711699479728 36
-4.042793852776878 17.223017871442483 2.172199176853349 39
-3.983096557169782 17.238959063556639 2.172442915540159 39
-3.923777358060000 17.256629008932403 2.172930392913780 42
-3.863516576593578 17.270220414631027 2.172930392913780 39
-3.801502288115068 17.275846547364171 2.171955438166538 39
-3.739915656282663 17.283190453768409 2.171224222106107 39
-3.680389403787256 17.300023182956529 2.171711699479728 39
-3.622416327236494 17.324423169211510 2.173174131600590 39
-3.561521238367992 17.335017737983581 2.172930392913780 39
-3.493920297782549 17.312318671718796 2.168543096551194 27
-3.436940958730608 17.341934229816125 2.170736744732487 36
-3.379039167373683 17.367465620638896 2.172442915540159 42
-3.318767122190040 17.381104725857167 2.172686654226969 39
-3.259172028184744 17.398436954273031 2.173417870287400 36
-3.202176869455082 17.413053805583260 2.173905347661021 39
-3.139613402236763 17.414357421020139 2.172686654226969 39
-3.080533773464362 17.434984691990877 2.173905347661021 42
-3.022025502348524 17.459323594683198 2.175611518468693 39
-2.964443758925431 17.471206114635496 2.175855257155503 39
-2.902789323167487 17.477530980318466 2.175367779781883 36
-2.838393409453466 17.486093396154022 2.175124041095072 39
-2.779516808942433 17.509618514900719 2.176830211902745 36
-2.722351693165384 17.524624146787474 2.177561427963175 39
-2.662056360959933 17.539908012531463 2.178292644023606 36
-2.599650372084805 17.541238885064061 2.177317689276365 39
-2.537551702811002 17.544312545100599 2.176586473215934 18
-0.411514224302823 2.916992837345986 0.361708211226478 2
-0.400518199011732 2.912511764992769 0.360976995166047 9
-0.392705163086760 2.927596211229322 0.362683165973719 21
-0.377856735564412 2.893518335384832 0.358295869611134 22
-0.366749264317089 2.890945196915237 0.357808392237513 23
-0.355683933984834 2.884327102981552 0.356833437490272 9
nan nan nan 0
-0.340174528414293 2.922173313075889 0.361220733852857 2
-0.331374372345435 2.931175414149104 0.362195688600098 1
-0.316386204393968 2.888901809954443 0.356833437490272 2
-0.307555456061667 2.901832819317181 0.358295869611134 2
-0.296210318774798 2.891040183902709 0.356833437490272 3
-0.286392498238775 2.900008360573631 0.357808392237513 6
nan nan nan 0
-0.268462676923109 2.921658222608501 0.360245779105616 41
-0.255117269541756 2.886984572013052 0.355858482743031 29
-0.245038258498021 2.887857508973060 0.355858482743031 32
-0.235117190686828 2.890673816696769 0.356102221429841 33
-0.224717380606645 2.887518701699284 0.355614744056220 34
-0.214048241534911 2.880366985322304 0.354639789308979 33
-0.203431776041392 2.873176064443504 0.353664834561738 14
-0.194734163275373 2.893674794019911 0.356102221429841 3
-0.185011288365818 2.900280110793800 0.356833437490272 3
-0.174169547232495 2.889019282967762 0.355371005369410 3
-0.163685165835902 2.873725925601785 0.353421095874928 3
-0.154288798629549 2.886173357262988 0.354883527995789 4
-0.143817043333258 2.878763863158640 0.353908573248548 5
-0.134596542811620 2.897094920529165 0.356102221429841 10
nan nan nan 0
-0.114401916943446 2.886042761505544 0.354639789308979 36
-0.103395135809082 2.874539824086742 0.353177357188117 37
-0.093553782324154 2.880835366971535 0.353908573248548 36
-0.083497220311752 2.881144379579299 0.353908573248548 36
-0.073186749586613 2.871496047073961 0.352689879814497 35
-0.063576128500589 2.867753745285629 0.352202402440876 30
-0.053713690462051 2.875897180677113 0.353177357188117 17
-0.043172639579727 2.876074734349116 0.353177357188117 9
-0.033338797260305 2.894072558375130 0.355371005369410 14
-0.024080349848825 2.874312787029750 0.352933618501307 14
-0.014037278192799 2.872394263240576 0.352689879814497 15
-0.003016314740906 2.880367352724267 0.353664834561738 16
0.007038062011667 2.880360333443984 0.353664834561738 18
0.009038379517807 2.876996090623937 0.251705785055237 50
0.019094128858241 2.878939358723934 0.251880096540732 30
nan nan nan 0
0.039083797828817 2.870767080818707 0.251182850598751 2
0.049036253653894 2.866628967285089 0.250834227627760 2
0.059206477890664 2.874408201835574 0.251531473569741 2
0.069214388493598 2.894114260232958 0.253274588424695 2
0.078552079366232 2.865972044713212 0.250834227627760 4
0.088870202420369 2.859690602780778 0.250311293171274 5
nan nan nan 0
0.109314022937499 2.884901927354480 0.252577342482713 71
0.119630714853021 2.890474829829358 0.253100276939199 57
0.128915578808107 2.872126162156601 0.251531473569741 55
0.138747813097203 2.867678541943959 0.251182850598751 55
0.148860265765938 2.869166464035338 0.251357162084246 52
0.158984795409851 2.870618705546301 0.251531473569741 46
0.169238396061703 2.874024144342753 0.251880096540732 46
nan nan nan 0
0.190084597371068 2.884701076687425 0.252925965453704 2
0.199877042470160 2.880044765964195 0.252577342482713 2
0.210508571394322 2.887277978343586 0.253274588424695 2
0.221800282018738 2.902418352758808 0.254669080308657 1
0.228388519237767 2.869929459280665 0.251880096540732 2
0.237745106367125 2.861172563821269 0.251182850598751 4
0.248556831842627 2.858253700187683 0.251008539113255 31
nan nan nan 0
0.268564786062223 2.862446658628102 0.251531473569741 46
0.277589759475019 2.851576674731744 0.250659916142265 52
0.287941847691386 2.854554992575953 0.251008539113255 50
0.297697471855036 2.851550877242331 0.250834227627760 48
0.308718397806883 2.860398774406338 0.251705785055237 49
0.319584000750097 2.867224228484403 0.252403030997218 50
0.328452445185266 2.856194480257893 0.251531473569741 49
0.338889474621183 2.858987642673121 0.251880096540732 46
0.350574790496901 2.867614673850793 0.252751653968209 46
0.361825885818677 2.876257515417017 0.253623211395685 42
nan nan nan 0
1.647995177376562 12.417270198179082 1.095896309309054 21
1.675726332014251 12.296941631738338 1.085786243150325 21
1.702361797381731 12.174598968676881 1.075501865506102 23
1.727315381386625 12.046304955511216 1.064694553405392 23
1.755160078723770 11.943612406838021 1.056153290616122 23
1.776687858044521 11.817541350817168 1.045520290000907 22
1.801258055109187 11.702961501707234 1.035933158298665 23
1.825360148016504 11.590323564315939 1.026520338081918 23
1.848381203939388 11.475694217723211 1.016933206379676 25
1.871595531795298 11.366944454240608 1.007869009133919 27
1.895395586922756 11.266032806869820 0.999502057830144 27
1.918176735255306 11.163131044425540 0.990960795040873 27
1.941639841002725 11.068058372102360 0.983116778193584 30
1.963760555942985 10.969036575895609 0.974924138375304 28
1.986287691591023 10.875876243689506 0.967254433013510 31
2.004175837262087 10.761147548162974 0.957667301311268 31
2.024260502016039 10.662087191875735 0.949474661492988 31
2.044435147361410 10.566931089833863 0.941630644645699 32
2.066667344810063 10.485448600537852 0.935006808196877 35
nan nan nan 0
2.099727278905633 10.283735519016428 0.918272905589326 32
2.120206480667203 10.202216448109306 0.911649069140504 37
2.140966745305868 10.124579180241366 0.905373855662673 37
2.158278003289349 10.033287314154691 0.897878461786374 43
2.176681425249723 9.949784412098493 0.891080313852057 40
2.192806364977363 9.866659074720003 0.884282165917740 42
2.209672598064102 9.781208038286946 0.877309706497927 42
2.227306658180982 9.701586035006864 0.870860181534600 42
2.247127540115891 9.633602795473221 0.865456525484246 42
2.263744937493386 9.553967857965041 0.859007000520919 49
2.279367838500367 9.472398070099072 0.852383164072097 54
2.296340624073684 9.398578350330281 0.846456573565256 50
2.314744582723835 9.332491535808591 0.841227229000397 50
2.326566322636288 9.255611502118565 0.834952015522565 50
2.345563972210876 9.195308471549868 0.830245605414192 54
2.360175609604720 9.119555504499584 0.824144703421856 50
2.374793106424693 9.045740479439788 0.818218112915015 52
2.390490107512022 8.971518239880638 0.812291522408174 56
2.409319238239787 8.916957227272956 0.808108046756287 52
2.422041342047959 8.847424778394952 0.802530079220436 52
2.433729854358269 8.769802345822084 0.796254865742605 56
2.446623941690018 8.704141882620865 0.791025521177746 54
2.460617157931300 8.638063647074770 0.785796176612886 58
2.478277486488312 8.574958411099008 0.780915455019017 54
2.493638092292795 8.516540491806365 0.776383356396139 54
2.502273430567689 8.447533529449821 0.770805388860289 54
2.513424491047199 8.377680127664057 0.765227421324439 54
2.529910516103612 8.326916003955052 0.761392568643542 62
2.541386179375348 8.260904881780863 0.756163224078682 56
2.556579445144181 8.208231588522812 0.752154059912290 60
2.566643130362877 8.140352011780147 0.746750403861935 56
2.581309684500292 8.083440945249608 0.742392616724552 60
2.592967398881686 8.023193574188832 0.737686206616179 56
2.603465311513992 7.965312136110921 0.733154107993301 56
2.574324411575651 7.784037920704523 0.717291762813227 45
2.564253069886524 7.659301768920344 0.706658762198012 53
2.593529861312903 7.657852593007163 0.707356008139994 61
2.615079365762171 7.633673967908925 0.705961516256031 66
2.651494039490035 7.652738016134169 0.708576188538461 74
2.685417528274980 7.668348714796560 0.710842237849900 74
2.699532308398652 7.623244070782628 0.707530319625489 53
2.707968143044131 7.558904484649219 0.702475286546125 57
2.720767234418782 7.511939826338892 0.698989056836218 37
2.727243790069117 7.456576205517249 0.694631269698836 33
2.738055578251391 7.405898187299203 0.690796417017939 33
2.745757288667920 7.347770695729743 0.686264318395060 37
2.753086776751268 7.289680265978873 0.681732219772182 53
2.766438322391009 7.248381595605605 0.678768924518762 53
2.776667524602379 7.199643194532978 0.675108383323360 56
2.748972837856683 7.054388438675514 0.662383644882202 64
2.795477189327486 7.100366200434402 0.667612989447062 56
2.812642401501694 7.067858245955096 0.665521251621118 60
2.824663367961044 7.026570843032386 0.662557956367697 60
2.830433837790935 6.970517974090109 0.658200169230315 54
2.843407875822062 6.932944778945284 0.655585496947885 58
2.845805120576632 6.873774336564649 0.650879086839511 54
2.857484864372929 6.834387717138990 0.648090103071586 54
2.871660944351649 6.798173565817961 0.645649742274652 50
2.881303113793622 6.755120614921134 0.642512135535736 50
2.893832201933322 6.719403195986715 0.640071774738802 50
2.898202543992828 6.665409521183065 0.635888299086914 52
2.904279541876030 6.619272162805216 0.632402069377008 52
2.917684837329270 6.587233719548659 0.630310331551064 48
2.921628644822186 6.537503998937887 0.626475478870167 52
2.934599837611716 6.505471907326088 0.624383741044223 56
2.940253765425848 6.454783255234072 0.620548888363326 52
2.946122490863187 6.408275582723145 0.617062658653420 50
2.955621589937016 6.373165967403940 0.614622297856485 47
2.966026515966383 6.337546527049907 0.612181937059551 50
2.979021076398578 6.305015731556279 0.610090199233607 50
2.983005470033481 6.256811123535854 0.606429658038206 54
2.985606190157094 6.209177165218931 0.602769116842804 54
2.999435191676614 6.182584468813300 0.601200313473346 54
3.010487298983421 6.150602501970458 0.599108575647402 52
3.018706365323637 6.113259597236403 0.596493903364973 49
3.025813195272500 6.074151214429970 0.593704919597047 49
3.029105564790700 6.027947028256131 0.590218689887141 52
3.039318902195075 5.996011282429257 0.588126952061197 56
3.047532319561442 5.960530008148747 0.585686591264263 52
3.061014361923274 5.935689498171312 0.584292099380300 56
3.063327814308815 5.889616561698936 0.580805869670394 50
3.068133730721783 5.848893345719206 0.577842574416974 50
3.081078016785353 5.824058882139332 0.576448082533011 50
3.089197273381542 5.790416150749236 0.574182033221572 50
3.099007262223467 5.760297145842166 0.572264606881123 50
3.101897031767338 5.722507170724455 0.569475623113198 54
3.108475405041518 5.687168686397644 0.567035262316264 57
3.110036684630004 5.643129611446250 0.563723344091853 54
3.123909412515134 5.621789754279830 0.562677475178881 54
3.135723471631005 5.596945570766787 0.561282983294919 52
3.139563135801445 5.558209403108968 0.558493999526994 52
3.144156708023631 5.521246305765767 0.555879327244564 52
3.154482518263957 5.494686513813903 0.554310523875106 55
3.162665323795303 5.464673267036083 0.552393097534657 52
3.169673153596874 5.432949154268793 0.550301359708714 52
3.173468144673435 5.396090735630653 0.547686687426284 55
3.179076630108427 5.362700076213179 0.545420638114845 52
3.187556774993053 5.334467223340854 0.543677523259892 52
3.193822789849291 5.302827248181407 0.541585785433948 50
3.199906906132882 5.271208776426771 0.539494047608004 53
3.206849185551464 5.241312209494343 0.537576621267556 53
3.208530404051099 5.205208195588120 0.534961948985126 53
3.221423531754069 5.185514620817006 0.534090391557649 53
3.229989213185672 5.159039682035576 0.532521588188191 56
3.237346265121746 5.130883293541991 0.530778473333238 53
3.234924845562098 5.087606930257748 0.527466555108827 53
3.241915144106527 5.059508381530797 0.525723440253874 53
3.249829580451108 5.033097020191200 0.524154636884416 50
3.257599251314860 5.006692237839506 0.522585833514958 51
3.269593954168569 4.986959553574789 0.521714276087482 54
3.267213756103349 4.945593241456114 0.518576669348566 54
3.273662402405088 4.919802977924531 0.517007865979108 54
3.275282592334988 4.885177604034268 0.514567505182174 51
3.285623392971717 4.863809047304430 0.513521636269202 51
3.295855003063855 4.842427943361842 0.512475767356230 54
3.295836426277954 4.806246343556426 0.509861095073800 54
3.296738130204442 4.771763395148805 0.507420734276866 51
3.306545254630122 4.750415031848347 0.506374865363894 48
3.313955739132307 4.725793920757878 0.504980373479931 51
3.320085122957241 4.699551847505985 0.503411570110474 51
3.326071808495914 4.673324743926795 0.501842766741016 51
3.329594082896995 4.643874879576613 0.499925340400567 54
3.335284624283750 4.617687866997375 0.498356537031109 51
3.342005266310302 4.593128947203352 0.496962045147147 54
3.349773047360679 4.570186487957734 0.495741864748680 52
3.352687718791487 4.540834558128663 0.493824438408231 49
3.354249421549165 4.509919485890536 0.491732700582287 52
3.365193136140726 4.491805354059494 0.491035454640306 52
3.377251479627033 4.475260205943330 0.490512520183820 55
3.379589728069485 4.445996412976444 0.488595093843372 60
3.382976223335916 4.418352976268298 0.486851978988419 60
3.383777561231160 4.387584862392591 0.484760241162475 60
3.396627978843342 4.372599656668753 0.484411618191484 60
3.399593174805314 4.345024897708182 0.482668503336531 60
3.409806618161185 4.326872142066335 0.481971257394550 60
3.408786892457421 4.294656078797046 0.479705208083111 60
3.412560391666216 4.268725003056349 0.478136404713653 57
3.419943097121565 4.247475701296004 0.477090535800681 60
3.427219127088049 4.226226985154678 0.476044666887709 60
3.431867923839584 4.201893116761765 0.474650175003746 57
3.431325901445394 4.171423627674613 0.472558437177803 57
3.438239573019101 4.150214998827618 0.471512568264831 55
3.447599915502622 4.132068701618156 0.470815322322849 42
3.446621541784927 4.101704785700754 0.468723584496906 30
3.464779360826462 4.094211485163060 0.469246518953392 20
3.457663581038120 4.058433679171232 0.466457535185467 10
3.467916930373777 4.041803200536915 0.465934600728981 5
3.505452169296393 4.056809134400632 0.469072207467896 2
nan nan nan 0
nan nan nan 0
nan nan nan 0
0.570462754587376 0.641850443361368 0.075128250248481 4
0.639138241984292 0.714084393277533 0.083843824523247 2
0.593604991030888 0.658571351642102 0.077568611045416 3
0.561083575679193 0.618138244210956 0.073036512422538 4
0.598188183326576 0.654411191766259 0.077568611045416 3
nan nan nan 0
nan nan nan 0
nan nan nan 0
0.656394089800409 0.698255692396709 0.083843824523247 2
nan nan nan 0
nan nan nan 0
nan nan nan 0
nan nan nan 0
nan nan nan 0
0.581609489139050 0.593298300073827 0.072687889451547 4
0.569679894325193 0.577085484966548 0.070944774596594 5
0.625067367119860 0.628787640735989 0.077568611045416 3
0.607524464150105 0.606888598899114 0.075128250248481 4
0.620955008256292 0.615989567815852 0.076522742132444 4
0.591875390268203 0.583057452676786 0.072687889451547 4
0.571119234791205 0.558695769301810 0.069898905683622 5
0.570207783138542 0.553922234815341 0.069550282712631 5
0.592212871255408 0.571294374527270 0.071990643509566 5
0.579815960004799 0.555441029490650 0.070247528654612 5
0.570202866105138 0.542427830050179 0.068853036770650 5
0.577886163706333 0.545906896797770 0.069550282712631 5
0.600131659802968 0.562970104134503 0.071990643509566 5
0.599177430727239 0.558155737586075 0.071642020538575 5
0.589231074214451 0.545442963010802 0.070247528654612 10
0.582330471365117 0.535292772610170 0.069201659741641 11
0.590175543897934 0.538526666349040 0.069898905683622 10
0.586146004027391 0.531112033616001 0.069201659741641 11
0.596789211346018 0.537162844898004 0.070247528654612 5
0.592718582816176 0.529765457310097 0.069550282712631 5
0.615521422057484 0.546101388237945 0.071990643509566 5
0.584534511802795 0.514973972825799 0.068155790828669 5
0.646212313637055 0.565516924343071 0.075128250248481 4
0.648182399142791 0.563257777093310 0.075128250248481 4
0.595929890744379 0.514029984188522 0.068853036770650 5
0.631011324973659 0.540460154388894 0.072687889451547 4
0.632894038639519 0.538254221146141 0.072687889451547 4
0.579968835739485 0.489764745608539 0.066412675973716 6
0.657913881478653 0.551859647530325 0.075128250248481 4
0.736383348528458 0.613313767250769 0.083843824523247 2
nan nan nan 0
nan nan nan 0
nan nan nan 0
nan nan nan 0
nan nan nan 0
nan nan nan 0
nan nan nan 0
nan nan nan 0
nan nan nan 0
nan nan nan 0
nan nan nan 0
nan nan nan 0
nan nan nan 0
nan nan nan 0
nan nan nan 0
nan nan nan 0
3.815602439494907 2.812076936332298 0.414687023993358 2
3.757859824022573 2.749330560812815 0.407365941602554 4
3.773882209473075 2.740879695279167 0.408063187544536 16
3.783426673278481 2.727689689626722 0.408063187544536 36
3.773011055675123 2.701210609294782 0.405971449718592 48
3.761304378139091 2.673019888566827 0.403705400407153 50
3.766191408076687 2.655771484310969 0.403182465950667 56
3.781967912744459 2.647178854043081 0.403879711892648 60
3.787912755493763 2.631687598679097 0.403531088921657 60
3.790515159842177 2.613924964102233 0.402833842979676 60
3.789298721543431 2.594586985014127 0.401787974066704 56
3.798332434570045 2.581344056957261 0.401787974066704 58
3.804464100644612 2.565177450840046 0.401439351095713 56
3.810083386717198 2.549665627895938 0.401090728124723 56
3.802363209741807 2.525327603495775 0.399347613269770 56
3.804500949106251 2.507653567157763 0.398650367327788 58
3.806127068183819 2.490659762797346 0.397953121385807 60
3.811455988288145 2.475188459932444 0.397604498414817 56
3.823852255361441 2.463360152788567 0.397953121385807 54
3.815640885269949 2.439265927565337 0.396210006530854 58
3.824132266142090 2.425931994466413 0.396210006530854 58
3.825832524902485 2.408322891061257 0.395512760588873 54
3.830836179766852 2.392842549799303 0.395164137617882 56
3.839165420234761 2.379455858051241 0.395164137617882 54
3.833459097476860 2.358359771975107 0.393769645733920 58
3.834865532377462 2.340811918353358 0.393072399791938 54
3.842606859036019 2.328082175399130 0.393072399791938 54
3.843879444234029 2.310548973044353 0.392375153849957 54
3.851921347047742 2.297117253167353 0.392375153849957 56
3.849627777924324 2.277570495546547 0.391329284936985 52
3.854512707711530 2.261429173787884 0.390980661965995 48
3.862383085646974 2.247960636149305 0.390980661965995 54
3.866365783184526 2.233147160562982 0.390632038995004 54
3.867222350878181 2.215675550714709 0.389934793053023 54
3.864922997484350 2.195581842746424 0.388888924140051 52
3.874299259076543 2.183055439012840 0.389063235625546 52
3.876678339005995 2.166602291665265 0.388540301169060 47
3.887702740370941 2.154988818345347 0.388888924140051 54
3.901810671253674 2.145925465101658 0.389586170082032 52
3.884789933066600 2.118935888198932 0.387145809285098 47
3.896035332930043 2.106578446090062 0.387494432256088 49
3.892829530067373 2.087316880046123 0.386448563343116 49
3.906765966747102 2.078139024083704 0.387145809285098 52
3.910471689221161 2.062630142429634 0.386797186314107 50
3.907411365047845 2.042745296266334 0.385751317401135 54
3.914518071520009 2.029093440151676 0.385751317401135 52
3.914137645402125 2.012457168463129 0.385054071459154 54
3.924688733707590 2.000591689134665 0.385402694430144 52
3.931648191371721 1.986879780562844 0.385402694430144 54
3.929653004692141 1.968681555607575 0.384531137002668 56
3.929363237081038 1.951407721402484 0.383833891060687 56
3.932575913167954 1.935919868261445 0.383485268089696 56
3.939309575997632 1.922180822298342 0.383485268089696 56
3.947788873783107 1.909285818057237 0.383659579575191 56
3.940056263481686 1.888604257998788 0.382265087691229 54
3.935826839589973 1.869709869471009 0.381219218778257 54
3.945934606063534 1.857657144581059 0.381567841749247 56
3.956006141693968 1.845556615456487 0.381916464720238 56
3.962424235162388 1.831736333256880 0.381916464720238 54
3.961548417349011 1.814574893531166 0.381219218778257 54
3.954844939219066 1.795662061069337 0.379999038379790 56
3.962905888510580 1.782663496810427 0.380173349865285 54
3.973053052413897 1.769748137700223 0.380521972836276 52
3.970092343133825 1.751847124914188 0.379650415408799 57
3.970706407194788 1.735584334179420 0.379127480952313 54
3.969426990391174 1.718547038979176 0.378430235010332 56
3.976935073899088 1.706160020444727 0.378604546495827 57
3.981032722685981 1.691488403192135 0.378430235010332 54
3.987205597776541 1.676885827446057 0.378430235010332 54
3.985677687901940 1.659893718624821 0.377732989068351 54
3.987476598070384 1.645147841400989 0.377384366097360 52
3.989506078950884 1.629712028064802 0.377035743126369 54
4.002841199342800 1.618065549294400 0.377732989068351 52
4.004765363165435 1.602602703796456 0.377384366097360 52
4.006353324330826 1.587845423531047 0.377035743126369 52
4.004452443693957 1.570940470460448 0.376338497184388 52
4.009911652775753 1.556952752163735 0.376338497184388 52
4.015322002349511 1.542946062889080 0.376338497184388 50
4.016958847124999 1.527504250401022 0.375989874213397 52
4.014807358180561 1.510666515106612 0.375292628271416 47
4.016321732488811 1.495252732492854 0.374944005300425 45
4.027125479609367 1.483289907142432 0.375466939756911 49
4.026662606098054 1.467177306783641 0.374944005300425 45
4.043005669848682 1.457166005663186 0.375989874213397 49
4.033053802118709 1.437692362347832 0.374595382329435 47
4.038047714254082 1.423605618471929 0.374595382329435 47
4.042992424052388 1.409501528410828 0.374595382329435 45
4.046004256619289 1.394730947934646 0.374421070843939 43
4.050848126534041 1.380599260272052 0.374421070843939 45
4.044314027421670 1.362633848905610 0.373375201930968 43
4.054716800437752 1.350396923816785 0.373898136387454 45
4.049943378120356 1.333120326680415 0.373026578959977 45
4.067603762486212 1.323999620286093 0.374246759358444 48
4.072200602400426 1.309792967197229 0.374246759358444 47
4.069378215135146 1.292446402451502 0.373549513416463 48
4.073864902954297 1.278233747599988 0.373549513416463 47
4.070469368392430 1.262356648343911 0.372852267474482 50
4.080566095285969 1.249890915474480 0.373375201930968 52
4.094439425736756 1.238523779376957 0.374246759358444 50
4.075829094513251 1.217381547530372 0.372155021532500 50
4.080053717789373 1.203146832228413 0.372155021532500 52
4.088054602193049 1.190011178233152 0.372503644503491 52
4.099843289765071 1.177934673374986 0.373200890445472 52
4.102013242833254 1.163072881211675 0.373026578959977 53
4.098373277638475 1.146599906206711 0.372329333017996 52
4.100430113365750 1.131756831369483 0.372155021532500 52
4.110122945271749 1.119006932896555 0.372677955988986 52
4.114003968130204 1.104653109047728 0.372677955988986 52
4.121686906986913 1.091305737253350 0.373026578959977 52
4.115832212857812 1.074395567540243 0.372155021532500 50
4.187091207358785 1.077399497668865 0.378255923524836 21
4.424508556244802 1.122038109643464 0.399347613269770 16
nan nan nan 0
nan nan nan 0
3.254885372831913 0.789243873364830 0.293017607117627 7
nan nan nan 0
nan nan nan 0
nan nan nan 0
