# This PCD file was generated using the MATLAB® pcwrite function
# from Computer Vision Toolbox®.
# .PCD v.7 - Point Cloud Data file format
VERSION .7
FIELDS x y z intensity
SIZE 8 8 8 1
TYPE F F F U
COUNT 1 1 1 1
WIDTH 952
HEIGHT 1
VIEWPOINT 0 0 0 1 0 0 0
POINTS 952
DATA ascii
1.420330616075594 6.380342737756200 -1.035283289636248 4
1.437361988541712 6.352225965736411 -1.031528862475282 4
1.463953470585335 6.366421285660718 -1.034657551776087 4
1.489762713285140 6.376660971752576 -1.037160503216731 4
1.514950128705913 6.378845559310397 -1.038411978937053 4
1.537207225390399 6.373518534389587 -1.038411978937053 4
1.324513576169400 5.412840223628530 -0.882603251756983 2
1.344352273273593 5.412018063277690 -0.883228989617143 2
1.606618731825932 6.372675133588942 -1.040914930377696 4
1.627874558561836 6.363200673994050 -1.040289192517535 4
1.646487092563427 6.348206907816210 -1.038724847867133 6
1.664615628331065 6.327137977891921 -1.036221896426489 6
1.383168365121547 5.183762223353082 -0.849752014098534 4
1.714937570349468 6.338244423827579 -1.039976323587455 6
1.741232354132868 6.347459558757173 -1.042479275028098 6
1.761261613663391 6.333730196194383 -1.041227799307777 6
1.782221292895070 6.331968767314167 -1.041853537167938 6
1.803229459181849 6.321909852844110 -1.041227799307777 6
1.828583483420068 6.322848678032729 -1.042479275028098 6
1.642917946186179 5.607440481947971 -0.925466295178006 4
nan nan nan 0
1.923146451642187 6.402060873286862 -1.058748459392282 2
1.503954245989854 4.943891227720067 -0.818465121090488 2
nan nan nan 0
nan nan nan 0
1.986180467819701 6.291700826931931 -1.044982226468742 4
2.010430493502709 6.288141952574419 -1.045607964328903 6
2.031759827627024 6.279206491777140 -1.045295095398823 14
2.059458876584676 6.297200307039887 -1.049362391489869 14
2.087012887101420 6.306851371291260 -1.052178211860593 8
2.107447351571378 6.287553536421507 -1.050300998280110 8
2.133822347229168 6.293254223001124 -1.052491080790673 2
nan nan nan 0
2.073480896032838 5.977731184718382 -1.002119183047719 14
2.081145560590756 5.939495441179531 -0.996800411236351 21
nan nan nan 0
1.972583087921134 5.500134916321329 -0.925466295178006 2
nan nan nan 0
2.064710563788373 5.639036982479126 -0.951121547444604 4
nan nan nan 0
2.106104176509388 5.630035760135813 -0.952060154234845 53
2.128538111554186 5.630040714226991 -0.953311629955167 59
2.153817765346302 5.637338691232754 -0.955814581395811 55
2.179174235368122 5.644528603715815 -0.958317532836454 40
2.210350108319498 5.666332531439446 -0.963323435717742 38
2.238807418712147 5.680636033847743 -0.967077862878707 38
2.265461190952187 5.687073292722130 -0.969580814319351 38
2.295623014827443 5.704786673006861 -0.973960979340477 42
2.327167716113894 5.728254672241905 -0.979279751151845 48
2.358397195799270 5.747509045231915 -0.983972785103052 48
2.379201640660642 5.741066565050633 -0.984285654033133 55
2.406853486354122 5.750948896469470 -0.987414343333937 61
2.433597750213968 5.761132743710414 -0.990543032634742 57
2.463768206755752 5.776223724664026 -0.994610328725788 19
nan nan nan 0
2.660552699057629 6.113016080249269 -1.055932639021558 4
2.689821194286866 6.121776788287634 -1.059061328322363 2
nan nan nan 0
2.723910048031950 6.089377180506366 -1.056558376881719 6
2.749213825452573 6.088833685371764 -1.058122721532122 8
2.766595116138537 6.067932175814952 -1.056245507951639 8
2.787759297131324 6.058237988738133 -1.056245507951639 8
2.811160627531775 6.056127149898677 -1.057496983671961 14
2.834797190729391 6.051643990543040 -1.058435590462202 14
2.854425020639072 6.035856023057073 -1.057496983671961 8
2.871223036116795 6.016941460469865 -1.055932639021558 4
2.877453905379388 5.978907594007659 -1.050926736140271 2
nan nan nan 0
nan nan nan 0
2.852514419438977 5.769089183446259 -1.019326974202144 14
2.869866906980734 5.756062519404404 -1.018701236341983 12
2.895267276182604 5.756598216570270 -1.020578449922466 10
2.914450185960580 5.744695140544589 -1.020265580992386 10
2.933585285568081 5.732728306614154 -1.019952712062305 10
2.968882154423356 5.754567880252230 -1.025584352803754 12
nan nan nan 0
2.076136429025867 3.954457169618899 -0.707396650911924 1
2.999475653235489 5.665023706185994 -1.015259678111098 10
3.003363108795193 5.627162814986074 -1.010253775229811 14
3.008944286852246 5.590553270850610 -1.005560741278604 12
3.017133444593156 5.559182123884005 -1.001806314117639 12
3.028933671155972 5.534753617378109 -0.999303362676995 12
3.053972536248067 5.532261705692506 -1.000867707327397 14
3.044444260462850 5.469786769483611 -0.991481639424983 14
3.045170535525014 5.428649941713499 -0.985849998683535 14
3.042708225400609 5.380159337658364 -0.978966882221765 10
nan nan nan 0
nan nan nan 0
3.071150777809270 5.300144917459281 -0.970206552179512 6
3.086644022415180 5.284275194284407 -0.969267945389270 8
3.106234867639575 5.279659855821026 -0.970206552179512 8
3.124645395541400 5.268784907189690 -0.970206552179512 8
3.146881276636082 5.260138676439396 -0.970832290039673 8
3.172363783919115 5.260963360924984 -0.973022372550236 10
3.193786499993935 5.254921864612131 -0.973960979340477 12
3.190441555261495 5.208367676582662 -0.967390731808788 6
3.208862602402816 5.201681354461296 -0.968016469668949 2
0.452656151982589 0.728071981632926 -0.135785115654920 5
0.453097167666947 0.723139612555089 -0.135159377794759 6
0.457727981090899 0.724894128609847 -0.135785115654920 5
0.466618525058479 0.733291371271838 -0.137662329235403 11
0.457445963151104 0.713366648665125 -0.134220771004518 25
0.449212234812052 0.695174247372376 -0.131092081703713 54
0.450558218552803 0.691946594182552 -0.130779212773633 75
0.456221804687936 0.695324442930508 -0.131717819563874 86
0.464093264523031 0.701966741752566 -0.133282164214277 76
0.482841705649154 0.725086706523442 -0.137975198165484 82
0.498577130146469 0.743081125180647 -0.141729625326449 87
0.505593253708878 0.747882254467589 -0.142981101046771 100
0.513760953187794 0.754276008572310 -0.144545445697173 100
0.521979382145498 0.760621754737262 -0.146109790347576 88
0.539235563998047 0.779917847743283 -0.150177086438622 64
0.554374495340742 0.795860685626323 -0.153618644669507 57
0.559418636933181 0.797154601761705 -0.154244382529668 55
0.559917096232615 0.791971058408286 -0.153618644669507 44
0.536320546239209 0.753005097281377 -0.146422659277656 52
0.526278228620571 0.733473674253853 -0.142981101046771 64
0.523049378816632 0.723627423699424 -0.141416756396369 63
0.525572123311455 0.721797232059128 -0.141416756396369 58
0.524583451947436 0.715179761616721 -0.140478149606127 51
0.520033358059872 0.703811826440696 -0.138600936025645 48
0.518948665232850 0.697238385319201 -0.137662329235403 50
0.520194366776963 0.693842162546606 -0.137349460305323 45
0.522613158701500 0.692022118220131 -0.137349460305323 45
0.523709429609134 0.688712861766593 -0.137036591375242 40
0.516500975051603 0.674334814833619 -0.134533639934599 42
0.516555256853040 0.669309599796322 -0.133907902074438 43
0.517676080163763 0.665942822729879 -0.133595033144357 51
0.521215293301908 0.665687082487131 -0.133907902074438 50
0.516196512528568 0.654557146282245 -0.132030688493955 53
0.513563713217830 0.646564080329416 -0.130779212773633 55
0.518285540617872 0.647852481152438 -0.131404950633794 54
0.520656557439075 0.645948518184399 -0.131404950633794 60
0.521663147086195 0.642593516219012 -0.131092081703713 54
0.529928493293464 0.648600080591018 -0.132656426354116 52
0.523403157447157 0.636068917569820 -0.130466343843553 61
0.519317862321537 0.626633251972634 -0.128901999193150 64
0.524033620089302 0.627849767340842 -0.129527737053311 70
0.530035235307786 0.630553076636944 -0.130466343843553 75
0.530956708898542 0.627191395224438 -0.130153474913472 84
0.528016407768968 0.619321360628522 -0.128901999193150 85
0.528888193309149 0.615975741857073 -0.128589130263070 87
0.533619240280071 0.617114271637609 -0.129214868123231 92
0.531878327454783 0.610778720620106 -0.128276261332989 100
0.547031666155410 0.623770065947514 -0.131404950633794 94
0.541359901638849 0.612973100740501 -0.129527737053311 100
0.538245107133749 0.605175516214106 -0.128276261332989 100
0.548261908411507 0.612121681328901 -0.130153474913472 98
0.547749140511976 0.607270487017309 -0.129527737053311 100
0.555178283872149 0.611203624517300 -0.130779212773633 96
0.553308579277946 0.604889273450346 -0.129840605983392 84
0.554078312519274 0.601501279241900 -0.129527737053311 77
0.574982403815038 0.619838615338786 -0.133907902074438 93
0.575794077483617 0.616384253087268 -0.133595033144357 100
0.583356130120171 0.620125829568666 -0.134846508864679 100
0.577366167443918 0.609481316532956 -0.132969295284196 100
0.574036111935267 0.601744927858624 -0.131717819563874 100
0.576133096494866 0.599737501856084 -0.131717819563874 100
0.580969963957372 0.600562306332758 -0.132343557424035 100
0.583062778154068 0.598530683874779 -0.132343557424035 100
0.590681806949472 0.602132352608681 -0.133595033144357 100
0.584450580507575 0.591634967656322 -0.131717819563874 100
0.583623506858177 0.586892211872973 -0.131092081703713 100
0.588464141470258 0.587643063613458 -0.131717819563874 100
0.601732940533169 0.596712873087433 -0.134220771004518 100
0.589737314953234 0.580748452831635 -0.131092081703713 100
0.587523960839792 0.574543008317978 -0.130153474913472 100
0.590943040401146 0.573864841339444 -0.130466343843553 100
0.600052225823197 0.578654666947774 -0.132030688493955 100
0.604921856816785 0.579289064019241 -0.132656426354116 100
0.596920027349705 0.567645148022005 -0.130466343843553 100
0.597461636191684 0.564201795678730 -0.130153474913472 100
0.597986496730075 0.560761595302636 -0.129840605983392 100
0.617287947503791 0.574825153403811 -0.133595033144357 89
0.616390041988486 0.569984633695556 -0.132969295284196 70
0.630015921421637 0.578518114774784 -0.135472246724840 54
0.639329773308548 0.582970336797247 -0.137036591375242 46
0.648682295123548 0.587364503971820 -0.138600936025645 37
0.652197541247249 0.586417361598175 -0.138913804955725 37
0.663081634895082 0.592030940546524 -0.140791018536208 30
0.648885089133172 0.575297546365767 -0.137349460305323 22
0.652371962649026 0.574334315063049 -0.137662329235403 22
0.648423945528509 0.566853125517120 -0.136410853515081 17
0.653382161964364 0.567176095274676 -0.137036591375242 11
0.661342999900276 0.570050740708120 -0.138288067095564 11
0.660327331327534 0.565169796265990 -0.137662329235403 16
0.654770026873723 0.556465228473159 -0.136097984585001 17
0.656708463927943 0.554176264375607 -0.136097984585001 17
0.660153011608721 0.553149238729678 -0.136410853515081 23
0.674228094865201 0.560948688283665 -0.138913804955725 21
0.666852077104646 0.551276046899803 -0.137036591375242 23
0.658084184715719 0.540171847539333 -0.134846508864679 18
0.657090082369732 0.535146156000668 -0.134220771004518 18
0.665098181897987 0.537817514407365 -0.135472246724840 18
0.676024008636366 0.543148842860827 -0.137349460305323 16
0.671738923700549 0.535858336668871 -0.136097984585001 17
0.670508289917261 0.531057344850398 -0.135472246724840 18
0.675463520427938 0.531155693900572 -0.136097984585001 11
0.674291257137388 0.526245732443889 -0.135472246724840 12
0.697984914600808 0.540827478886326 -0.139852411745966 10
0.693605697051434 0.533569974371319 -0.138600936025645 10
0.695463978154329 0.531145587972422 -0.138600936025645 16
0.702036000498113 0.532295190655850 -0.139539542815886 21
0.703889780415134 0.529841384772715 -0.139539542815886 21
0.711971563660166 0.532235269067013 -0.140791018536208 20
0.701134850345296 0.520329061393127 -0.138288067095564 22
0.720533644262204 0.530641103563466 -0.141729625326449 14
0.735138827491813 0.537449409817415 -0.144232576767093 13
0.791266661169840 0.574466984892582 -0.154870120389829 12
0.804485023145819 0.579786115907374 -0.157060202900392 17
0.798570731144401 0.571088281640060 -0.155495858249989 26
0.805391686214037 0.571727636138823 -0.156434465040231 20
0.794464361672491 0.559810206367535 -0.153931513599587 10
0.814219619467192 0.569487600863568 -0.157373071830472 2
nan nan nan 0
2.639322823295655 1.820067068779260 -0.507786273520589 1
2.626725976530153 1.796537375641549 -0.504031846359624 1
2.655862334849642 1.802890036860483 -0.508412011380750 1
2.640221060159478 1.780181215958003 -0.504344715289704 4
nan nan nan 0
2.648261701945739 1.757502844359829 -0.503406108499463 22
2.649431273199442 1.744988349049608 -0.502467501709222 22
2.655506278007624 1.735729476960102 -0.502467501709222 23
2.669835193203701 1.731824453859647 -0.504031846359624 22
2.675262696137937 1.723428386823220 -0.504031846359624 22
2.671276205984882 1.707695568922477 -0.502154632779141 21
2.677220901610530 1.698360670987806 -0.502154632779141 21
2.686476444027416 1.691109758290578 -0.502780370639302 21
2.689012357549641 1.679628907146983 -0.502154632779141 21
2.699896093765859 1.673354198957126 -0.503093239569382 22
2.700672754820078 1.660815280562827 -0.502154632779141 22
2.699708572834751 1.647262471196093 -0.500903157058819 22
2.715868100442121 1.643492731928168 -0.502780370639302 22
2.721588414674872 1.634002570379656 -0.502780370639302 21
2.732366934169752 1.627525154593049 -0.503718977429543 25
2.736330770011812 1.616972543679079 -0.503406108499463 22
2.738269871265742 1.605891033357527 -0.502780370639302 22
2.750688561353838 1.600296327650744 -0.504031846359624 21
2.759957606866805 1.592177983451445 -0.504657584219785 21
2.777500074121960 1.589402019937849 -0.506847666730348 22
2.775884448407320 1.576281072882164 -0.505596191010026 23
2.779648639858529 1.565612405214165 -0.505283322079946 21
2.788545748622149 1.557826893756767 -0.505909059940107 21
2.814701036439167 1.559572122533696 -0.509663487101072 20
2.820398248215363 1.549245252172712 -0.509663487101072 20
2.818850232252088 1.535610821404998 -0.508412011380750 20
2.827669271204575 1.527639703114950 -0.509037749240911 20
2.843431893906627 1.523357136550647 -0.510914962821394 21
2.855709990279782 1.517129523359078 -0.512166438541716 21
2.878465383787383 1.516358785235050 -0.515295127842521 18
2.881464367040353 1.506393167298027 -0.514982258912440 20
2.888458875423677 1.497234870088174 -0.515295127842521 20
2.911498013628597 1.495664421738807 -0.518423817143325 18
2.937823878981373 1.496250225484403 -0.522178244304291 3
2.928663924685964 1.479374599697484 -0.519675292863647 1
nan nan nan 0
nan nan nan 0
nan nan nan 0
3.932971519922681 1.917388728661316 -0.693004680128223 52
3.950312206994221 1.908805024372120 -0.694881893708706 29
3.939135034446912 1.886472020620588 -0.691753204407901 50
3.942126901459105 1.871016386292685 -0.691127466547740 61
3.948309740232875 1.857933534916015 -0.691127466547740 45
3.965512879712794 1.849149024322358 -0.693004680128223 63
3.965090325913601 1.831289221160266 -0.691753204407901 63
3.962477425035171 1.813327326754132 -0.690188859757499 63
3.956189378208318 1.793774591819832 -0.687998777246935 59
3.969634406002082 1.783191737158142 -0.689250252967257 63
3.970112067315883 1.767607776258606 -0.688311646177016 63
3.978065372612417 1.754535884048985 -0.688624515107096 61
3.973304640638616 1.735894114433699 -0.686747301526613 59
3.972088190807745 1.718876050577179 -0.685495825806292 61
3.981993055336790 1.705861807744543 -0.686121563666453 61
3.991560321618664 1.693494712931050 -0.686747301526613 61
3.997154205507817 1.680248910500192 -0.686747301526613 59
3.992052889105569 1.661731233750072 -0.684870087946131 59
3.990523785934122 1.644775214706394 -0.683618612225809 59
4.003556583880697 1.633821178190008 -0.684870087946131 59
4.005572218320829 1.618356225678321 -0.684244350085970 59
4.011196932453629 1.604364309765714 -0.684244350085970 59
4.013376707814210 1.588198033682461 -0.683618612225809 57
4.011538855793954 1.571297266424350 -0.682367136505487 57
4.024094171283964 1.560843263642088 -0.683618612225809 56
4.027673841867846 1.546079132745987 -0.683305743295728 54
4.032778679512396 1.532714384107270 -0.683305743295728 50
4.030708486690220 1.515846651678728 -0.682054267575407 49
4.035975222494717 1.501767618338769 -0.682054267575407 47
4.030070232275680 1.483575781058802 -0.680177053994924 36
4.041049480808029 1.470821726211014 -0.681115660785165 33
4.053593363014937 1.459383410327307 -0.682367136505487 31
4.047497355956139 1.441248978603486 -0.680489922925004 28
4.046913934872966 1.425143365584855 -0.679551316134763 26
4.047886857975423 1.410415557271812 -0.678925578274602 24
4.052785465924503 1.396277202548122 -0.678925578274602 19
4.059745844799606 1.382050218867361 -0.679238447204683 14
4.051439969676922 1.363460187893026 -0.677048364694119 10
4.046802713418938 1.346192087827998 -0.675484020043717 8
4.027081961929756 1.324037180254636 -0.671416723952671 7
4.014543190507718 1.305178839576217 -0.668600903581947 7
3.977699063801627 1.277865301211532 -0.661717787120177 5
3.846573356020038 1.220943895402556 -0.639191224154383 3
3.666093476373026 1.149586785593020 -0.608530069006498 3
3.458747494455141 1.071322745281318 -0.573488748837486 1
3.466243959410329 1.060398684465093 -0.574114486697647 1
nan nan nan 0
1.955416876410863 0.583306723158016 -0.323193604773117 1
1.915753083932603 0.564200138591757 -0.316310488311347 2
1.929091911747118 0.560818136650951 -0.318187701891830 3
1.919645226408965 0.550812018486807 -0.316310488311347 3
1.921556224025178 0.544107850425206 -0.316310488311347 3
1.917736259693263 0.535802402573497 -0.315371881521105 4
1.911977435619975 0.527005366518801 -0.314120405800784 4
1.921430101854014 0.522401129435141 -0.315371881521105 4
1.911794047537948 0.512621315369612 -0.313494667940623 4
1.913571782554345 0.505944785707480 -0.313494667940623 4
1.907680188522807 0.497269029027211 -0.312243192220301 4
1.911317589942956 0.491098543077464 -0.312556061150381 5
1.909190329097533 0.483453990253998 -0.311930323290220 5
1.918532731473413 0.478699612527196 -0.313181799010542 5
1.920192016595407 0.471999767131070 -0.313181799010542 5
1.914148272796508 0.463434853201833 -0.311930323290220 5
1.902303668675646 0.453543531962411 -0.309740240779657 4
1.909644560476246 0.448254733735325 -0.310678847569898 5
1.915046967927829 0.442475497311034 -0.311304585430059 5
1.922282143211134 0.437437482165949 -0.312243192220301 6
1.910303805022744 0.427703684429943 -0.310053109709738 6
1.907926836352801 0.420183160865659 -0.309427371849577 5
1.915173781749539 0.414775053495407 -0.310365978639818 6
1.928130663031565 0.410892121109098 -0.312243192220301 6
1.923752937251479 0.402944278413935 -0.311304585430059 6
1.913676182512251 0.393169391020717 -0.309427371849577 5
1.903418921168547 0.384142305254474 -0.307550158269094 5
1.908623609658225 0.378263841386058 -0.308175896129255 5
1.913810404150076 0.372353713305493 -0.308801633989416 5
1.930492287679687 0.369308789902797 -0.311304585430059 5
1.922062269510618 0.360745915244310 -0.309740240779657 4
1.925314358821259 0.354056053296656 -0.310053109709738 4
1.945978863699540 0.350838171815967 -0.313181799010542 1
nan nan nan 0
nan nan nan 0
nan nan nan 0
nan nan nan 0
nan nan nan 0
nan nan nan 0
2.071090771368535 0.321362104039481 -0.331953934815370 1
1.994077393881143 0.302287874415536 -0.319439177612151 1
1.987304088278933 0.294168399177471 -0.318187701891830 2
1.976588325766322 0.285535051138255 -0.316310488311347 3
1.993221437980242 0.280838547584692 -0.318813439751991 2
2.045071772570874 0.280867280843200 -0.326948031934083 3
2.018581499505387 0.270412094939940 -0.322567866912956 3
2.039101022049572 0.265918737863446 -0.325696556213761 2
4.607286919990015 0.583669677758836 -0.735554854619166 1
3.182002464743428 0.391828297588146 -0.507786273520589 1
3.175505218310688 0.379780340590502 -0.506534797800268 1
3.161113904637696 0.366871612095471 -0.504031846359624 1
3.150597333006826 0.354509760131822 -0.502154632779141 1
3.183235577168346 0.346934361685801 -0.507160535660429 1
3.180498244398160 0.335406344599604 -0.506534797800268 1
3.165928099537529 0.322699808512492 -0.504031846359624 1
3.159171717796774 0.310872894239408 -0.502780370639302 1
3.124839812134558 0.296484888079999 -0.497148729897854 2
3.070774542227131 0.280543190429277 -0.488388399855601 15
3.055992716025844 0.268439659170505 -0.485885448414957 26
3.080440956547630 0.260837699479808 -0.489639875575923 30
3.081332682931999 0.250083364782796 -0.489639875575923 30
3.098026230887333 0.239467973955119 -0.492142827016566 16
nan nan nan 0
nan nan nan 0
nan nan nan 0
nan nan nan 0
nan nan nan 0
nan nan nan 0
nan nan nan 0
1.209439528432935 0.059574652389646 -0.191788654139323 1
1.142547514308731 0.052282432092883 -0.181151110516587 2
1.146670283154236 0.048460696705699 -0.181776848376748 2
1.146832456646008 0.044457775219864 -0.181776848376748 2
1.162766674009382 0.041214283839717 -0.184279799817392 2
1.166852193121304 0.037281383345817 -0.184905537677553 2
1.127489255936720 0.031887505484719 -0.178648159075944 2
1.111795534701485 0.027560022586267 -0.176145207635300 2
1.092135674818898 0.023258378517880 -0.173016518334495 2
1.111960844720052 0.019797616942095 -0.176145207635300 2
1.084370735510940 0.015520248168626 -0.171765042614173 2
1.092319349045634 0.011820494233875 -0.173016518334495 2
1.037043551842949 0.007783070644967 -0.164256188292242 2
1.072620895581488 0.004305799366609 -0.169887829033691 2
1.064727771693805 0.000743320330901 -0.168636353313369 2
1.041019451932046 -0.002907082278842 -0.164881926152403 2
1.021248449690228 -0.006595026409146 -0.161753236851599 2
1.044922554120333 -0.010395626183379 -0.165507664012564 2
1.064629370067853 -0.014494299917389 -0.168636353313369 2
1.029020710193939 -0.017602320054684 -0.163004712571921 2
1.025006751214910 -0.020933908746641 -0.162378974711760 2
0.973582321267047 -0.023283774915387 -0.154244382529668 2
0.985342925050567 -0.027006800640050 -0.156121596110150 2
0.989191519016788 -0.030568153337424 -0.156747333970311 2
0.985130371433456 -0.033885077945902 -0.156121596110150 2
0.988954008881963 -0.037473211891882 -0.156747333970311 2
0.980936541717268 -0.040255921190134 -0.155495858249989 2
0.976843204895993 -0.043504009688358 -0.154870120389829 2
0.984561235305449 -0.047636342867882 -0.156121596110150 2
0.980443508439786 -0.050868112068188 -0.155495858249989 2
0.972370556118214 -0.053853245514052 -0.154244382529668 2
0.956400963205348 -0.056318164662376 -0.151741431089024 3
0.956198549402208 -0.059656283928579 -0.151741431089024 3
0.952042280561208 -0.062733908564461 -0.151115693228863 3
0.975465137893636 -0.067697936191506 -0.154870120389829 2
0.975222885129428 -0.071102532516602 -0.154870120389829 2
0.955272411206730 -0.073001085459984 -0.151741431089024 3
0.958949962884077 -0.076649947886726 -0.152367168949185 2
0.942955690103206 -0.078353575620641 -0.149864217508541 3
0.938740421735056 -0.081303731728193 -0.149238479648380 3
0.954175093945486 -0.086165121628052 -0.151741431089024 3
0.930267638070086 -0.087280972885847 -0.147987003928058 3
0.918160804550231 -0.089379338508744 -0.146109790347576 4
0.929635636913177 -0.093773286438242 -0.147987003928058 3
0.921460622823257 -0.096036479255396 -0.146735528207737 4
0.960399940253131 -0.103484903381163 -0.152992906809346 2
0.920749813912194 -0.102627798097084 -0.146735528207737 4
0.920385966520570 -0.105841189494418 -0.146735528207737 4
0.896489712621327 -0.106106549786445 -0.142981101046771 4
0.915722488518869 -0.111625504188776 -0.146109790347576 4
0.907467319414304 -0.113996196771512 -0.144858314627254 4
0.907063869827260 -0.117163154350453 -0.144858314627254 4
0.918398603823017 -0.121888019335494 -0.146735528207737 4
0.874907228990722 -0.119225180178571 -0.139852411745966 5
0.878398413021118 -0.122825557133764 -0.140478149606127 5
0.881875074523301 -0.126451753156778 -0.141103887466288 5
0.861884438039300 -0.126657254655531 -0.137975198165484 5
0.849716838563104 -0.127900871201981 -0.136097984585001 5
0.884407212899870 -0.136281308606533 -0.141729625326449 9
0.891731201347228 -0.140598254922611 -0.142981101046771 9
0.863932385512699 -0.139307622889606 -0.138600936025645 10
0.843950083731505 -0.139109764347834 -0.135472246724840 12
0.859042903130995 -0.144679422418905 -0.137975198165484 11
0.878000504527853 -0.151025848750261 -0.141103887466288 10
0.846338292532605 -0.148623124664014 -0.136097984585001 11
0.865258352756777 -0.155061008197818 -0.139226673885805 10
0.864711817379081 -0.158080378806678 -0.139226673885805 10
0.825316330220966 -0.153857471648997 -0.132969295284196 12
0.840299401462020 -0.159687777459314 -0.135472246724840 12
0.847494252163286 -0.164122260132291 -0.136723722445162 11
0.854668288659858 -0.168608899677403 -0.137975198165484 11
0.838581111381121 -0.168478455602276 -0.135472246724840 12
0.822505447417733 -0.168237794445183 -0.132969295284196 12
0.814177523507801 -0.169497422470206 -0.131717819563874 13
0.825175884136747 -0.174794528971291 -0.133595033144357 12
0.820698599058558 -0.176841669339963 -0.132969295284196 12
0.839404309258375 -0.183787225318766 -0.136097984585001 11
0.827188587034575 -0.184140777968096 -0.134220771004518 12
0.807274091490311 -0.182667477464051 -0.131092081703713 13
0.837433704040645 -0.192567208861391 -0.136097984585001 11
0.817487289998409 -0.191137901010450 -0.132969295284196 12
0.805283606312461 -0.191251613114726 -0.131092081703713 13
0.793122603113199 -0.191144066836611 -0.129214868123231 14
0.792450553831472 -0.193911416858547 -0.129214868123231 14
0.803271543929632 -0.199533688452581 -0.131092081703713 13
0.802570147572518 -0.202336413776695 -0.131092081703713 13
0.771273483307665 -0.197168682747592 -0.126086178822426 15
0.793525863477026 -0.205810886570428 -0.129840605983392 14
0.769842838940255 -0.202682704842738 -0.126086178822426 15
0.780581730860065 -0.208426321879566 -0.127963392402909 14
0.783662876307162 -0.212182308113030 -0.128589130263070 14
0.801966533804283 -0.220145621503771 -0.131717819563874 13
0.747943499730887 -0.207985521084649 -0.122957489521621 16
0.773831210651889 -0.218097178240763 -0.127337654542748 7
0.780623960341272 -0.223103267836433 -0.128589130263070 7
0.783635272711001 -0.226925708589951 -0.129214868123231 7
0.798002319554901 -0.234108338156369 -0.131717819563874 6
nan nan nan 0
nan nan nan 0
nan nan nan 0
nan nan nan 0
nan nan nan 0
nan nan nan 0
nan nan nan 0
nan nan nan 0
nan nan nan 0
nan nan nan 0
nan nan nan 0
nan nan nan 0
nan nan nan 0
nan nan nan 0
nan nan nan 0
nan nan nan 0
nan nan nan 0
nan nan nan 0
1.229593503597691 -0.450940949053247 -0.207432100643346 1
nan nan nan 0
nan nan nan 0
nan nan nan 0
nan nan nan 0
nan nan nan 0
1.295317567515418 -0.506065264611413 -0.220259726776645 1
1.337733372726814 -0.527756475050079 -0.227768581098576 4
1.359738062641345 -0.541930371036797 -0.231835877189622 6
1.363431186867043 -0.548648738526058 -0.232774483979864 3
1.385297524642113 -0.563074364034874 -0.236841780070910 15
nan nan nan 0
nan nan nan 0
nan nan nan 0
nan nan nan 0
nan nan nan 0
4.099650646915324 -1.767285234053921 -0.707083781981844 1
3.993837172429523 -1.738227763384317 -0.689875990827418 12
3.935298756665847 -1.729114008498736 -0.680802791855085 26
3.919906921088433 -1.739519721601909 -0.679238447204683 38
3.902994370122931 -1.748346849447161 -0.677361233624200 33
3.879174373893587 -1.753144789543209 -0.674232544323395 36
3.856856051318460 -1.759296729436180 -0.671416723952671 40
3.836028293340056 -1.766809921196478 -0.668913772512027 43
3.811924426694241 -1.771862971040710 -0.665785083211223 40
3.796774244698282 -1.780963824804287 -0.664220738560820 40
3.760181547057162 -1.779839018390291 -0.658901966749452 31
3.736743496635508 -1.783135847022459 -0.655773277448648 15
nan nan nan 0
2.977436508978347 -1.447692540851206 -0.524368326814854 3
2.943989180073686 -1.444157325299054 -0.519362423933567 3
2.907062276701387 -1.438654093860148 -0.513730783192118 4
2.873744794378423 -1.434675521829117 -0.508724880310831 7
2.879810994784277 -1.449023856267868 -0.510602093891314 9
2.878258372880348 -1.460855517492015 -0.511227831751475 9
2.886692160021826 -1.479102787391511 -0.513730783192118 9
2.883266420203114 -1.490077136876474 -0.514043652122199 7
2.878047514490770 -1.500132536826787 -0.514043652122199 7
nan nan nan 0
3.478354591372168 -1.844026438440474 -0.623547777650360 48
3.457960183090321 -1.848706222199759 -0.621044826209717 42
3.430620520914738 -1.849516532697377 -0.617290399048751 43
3.408524093305652 -1.852989071072290 -0.614474578678027 42
3.390558246251181 -1.857045630707838 -0.612284496167464 53
3.371950851895576 -1.862184807913905 -0.610094413656900 47
3.351623178183839 -1.866255793427786 -0.607591462216257 48
3.331308338079048 -1.870207649105404 -0.605088510775613 47
3.306915008408835 -1.873248915785196 -0.601959821474808 48
3.293494555581199 -1.880862327683212 -0.600708345754487 45
3.275583479161005 -1.884304847844680 -0.598518263243923 31
3.270694898812545 -1.896718258999158 -0.598831132174004 22
3.238143358598061 -1.893734804403052 -0.594138098222797 10
3.214496341831196 -1.894994761712954 -0.591009408921992 3
3.159985140242814 -1.878500445458638 -0.582249078879739 1
nan nan nan 0
nan nan nan 0
nan nan nan 0
nan nan nan 0
nan nan nan 0
nan nan nan 0
nan nan nan 0
nan nan nan 0
nan nan nan 0
nan nan nan 0
nan nan nan 0
nan nan nan 0
nan nan nan 0
nan nan nan 0
nan nan nan 0
nan nan nan 0
nan nan nan 0
nan nan nan 0
nan nan nan 0
nan nan nan 0
2.081586416559564 -1.452674974876915 -0.402036575153393 3
2.089174173303236 -1.469385941482296 -0.404539526594037 2
2.773874433128338 -1.965466610196482 -0.538447428668475 1
nan nan nan 0
2.779679405659063 -1.998138020580657 -0.542201855829440 42
2.766287926870036 -2.003194396935275 -0.540950380109118 40
2.746511570622528 -2.003525033284306 -0.538447428668475 43
2.721991344598839 -2.000232946065614 -0.535005870437590 43
2.707054070345764 -2.003845901957102 -0.533441525787187 43
2.688957630598304 -2.005017397646131 -0.531251443276624 42
2.672465603350911 -2.007273405353607 -0.529374229696141 42
2.668945608133156 -2.018507709972160 -0.529999967556302 42
2.652455282621203 -2.020629439166883 -0.528122753975819 41
2.634415608125964 -2.021458193668058 -0.525932671465256 38
nan nan nan 0
1.819047596894514 -1.416089918075006 -0.365118041403899 6
1.820311410725423 -1.427306464955928 -0.366369517124221 8
1.805767752904961 -1.426621247292339 -0.364492303543738 8
1.797685451560578 -1.430455920196452 -0.363866565683577 7
1.800640224643223 -1.442584843664068 -0.365430910333979 5
1.814041574115394 -1.463747025260747 -0.369185337494945 2
1.842646739200983 -1.497478384635514 -0.376068453956715 1
nan nan nan 0
nan nan nan 0
nan nan nan 0
nan nan nan 0
nan nan nan 0
0.695926408912105 -0.590397364075169 -0.144545445697173 4
0.639794183589648 -0.546629003390064 -0.133282164214277 6
0.640973180463971 -0.551323911768685 -0.133907902074438 12
0.645017177112708 -0.558731405796817 -0.135159377794759 12
0.640085767769057 -0.558382404473354 -0.134533639934599 12
0.626260512611205 -0.550183303672297 -0.132030688493955 13
0.612500441761529 -0.541894615378101 -0.129527737053311 14
0.607655361684017 -0.541401178444114 -0.128901999193150 14
0.608702408193800 -0.546157434805128 -0.129527737053311 14
0.597998163902069 -0.540332804692504 -0.127650523472828 14
0.593186307187814 -0.539758009486603 -0.127024785612667 15
0.582560183481915 -0.533818056865789 -0.125147572032185 15
0.590950544478171 -0.545122532754339 -0.127337654542748 15
0.583254980148188 -0.541804303824080 -0.126086178822426 15
0.592804014770511 -0.554736185632550 -0.128589130263070 14
0.585113511215409 -0.551383079835360 -0.127337654542748 15
0.571722159434664 -0.542544071309211 -0.124834703102104 15
0.569824844077283 -0.544536448710010 -0.124834703102104 15
0.570863160860070 -0.549162024657937 -0.125460440962265 15
0.554754651269830 -0.537406940250988 -0.122331751661461 16
0.555608755662883 -0.542195874570513 -0.122957489521621 16
0.550894877297095 -0.541362888184309 -0.122331751661461 8
0.565850972393483 -0.559956205922667 -0.126086178822426 7
0.563892913113053 -0.561927982975429 -0.126086178822426 7
0.559237179430910 -0.560996840361614 -0.125460440962265 7
0.573952102354443 -0.579791774742287 -0.129214868123231 7
0.571823204143529 -0.581891520009464 -0.129214868123231 7
nan nan nan 0
nan nan nan 0
nan nan nan 0
nan nan nan 0
nan nan nan 0
nan nan nan 0
nan nan nan 0
nan nan nan 0
nan nan nan 0
nan nan nan 0
nan nan nan 0
nan nan nan 0
nan nan nan 0
nan nan nan 0
nan nan nan 0
nan nan nan 0
nan nan nan 0
nan nan nan 0
nan nan nan 0
nan nan nan 0
nan nan nan 0
nan nan nan 0
nan nan nan 0
nan nan nan 0
nan nan nan 0
nan nan nan 0
nan nan nan 0
nan nan nan 0
nan nan nan 0
nan nan nan 0
nan nan nan 0
nan nan nan 0
nan nan nan 0
nan nan nan 0
nan nan nan 0
nan nan nan 0
nan nan nan 0
nan nan nan 0
nan nan nan 0
nan nan nan 0
nan nan nan 0
nan nan nan 0
nan nan nan 0
nan nan nan 0
nan nan nan 0
nan nan nan 0
nan nan nan 0
nan nan nan 0
nan nan nan 0
nan nan nan 0
nan nan nan 0
nan nan nan 0
0.324252912034621 -0.481812298641332 -0.091983465443656 13
0.353289964249251 -0.528935618796708 -0.100743795485909 12
0.375453011846999 -0.566388103441116 -0.107626911947679 33
0.374559340271087 -0.569345505224858 -0.107939780877759 44
0.381208968367382 -0.583881944672313 -0.110442732318403 42
0.381316781131067 -0.588524687128786 -0.111068470178564 41
0.370713416478575 -0.576559702879025 -0.108565518737920 43
0.368698589022764 -0.577850221591884 -0.108565518737920 43
0.358225568362678 -0.565781913805617 -0.106062567297277 45
0.366757241987127 -0.583755423899880 -0.109191256598081 43
0.362627250273159 -0.581679469725806 -0.108565518737920 43
0.352281180569226 -0.569502152441115 -0.106062567297277 45
0.330658266296003 -0.538740647684365 -0.100118057625748 37
0.282541613757230 -0.463969325047575 -0.086038955772127 29
nan nan nan 0
nan nan nan 0
nan nan nan 0
nan nan nan 0
nan nan nan 0
nan nan nan 0
nan nan nan 0
nan nan nan 0
nan nan nan 0
nan nan nan 0
nan nan nan 0
nan nan nan 0
nan nan nan 0
nan nan nan 0
nan nan nan 0
nan nan nan 0
nan nan nan 0
nan nan nan 0
nan nan nan 0
nan nan nan 0
nan nan nan 0
nan nan nan 0
nan nan nan 0
nan nan nan 0
nan nan nan 0
nan nan nan 0
nan nan nan 0
nan nan nan 0
nan nan nan 0
nan nan nan 0
nan nan nan 0
nan nan nan 0
nan nan nan 0
nan nan nan 0
nan nan nan 0
nan nan nan 0
nan nan nan 0
1.068087034221367 -2.426263626021331 -0.419870104167980 3
1.051715524315209 -2.411870031541685 -0.416741414867175 10
1.034674360121382 -2.395578468139132 -0.413299856636290 15
1.020090599820147 -2.384646110189152 -0.410796905195646 19
1.009448702174655 -2.382735716126766 -0.409858298405405 19
0.995011510468310 -2.371672345695078 -0.407355346964761 26
0.985968912427917 -2.373306917531126 -0.407042478034681 29
0.976927036082007 -2.374907280558474 -0.406729609104600 34
0.969461236151559 -2.377964662621611 -0.406729609104600 34
0.961154684147015 -2.381334226483101 -0.406729609104600 37
0.951370518590162 -2.381006044116177 -0.406103871244439 41
0.941600373401853 -2.380638616034927 -0.405478133384278 41
0.934004784346337 -2.385750348477154 -0.405791002314359 39
0.924957569411034 -2.387154158854520 -0.405478133384278 43
0.916201999276054 -2.390528263767187 -0.405478133384278 43
0.906450910548766 -2.390017841900704 -0.404852395524118 45
0.897131593204323 -2.389311974964445 -0.404226657663957 43
0.890161701868583 -2.396132442575913 -0.404852395524118 43
0.882735704853956 -2.403087422197368 -0.405478133384278 45
0.874341986414762 -2.406154104403849 -0.405478133384278 43
0.861928643957377 -2.398037804176433 -0.403600919803796 43
0.852229341251795 -2.397309356893063 -0.402975181943635 43
0.845585876952915 -2.403849167945297 -0.403600919803796 45
0.837189725854313 -2.406786168411625 -0.403600919803796 45
0.828362790326899 -2.409838456232153 -0.403600919803796 45
0.818674603782795 -2.408974656541364 -0.402975181943635 45
0.810260725342855 -2.411817687907684 -0.402975181943635 43
0.803082062600830 -2.418380759570818 -0.403600919803796 46
0.793825359311829 -2.417277042800626 -0.402975181943635 45
0.785382651525645 -2.420033283535589 -0.402975181943635 46
0.776507510872224 -2.422895599958141 -0.402975181943635 45
0.765660062328775 -2.418058463481167 -0.401723706223313 46
0.757214798468016 -2.420716384221673 -0.401723706223313 46
0.749926601498826 -2.427119489685281 -0.402349444083474 47
0.743756024839813 -2.437279892225759 -0.403600919803796 45
0.735813755551919 -2.441752601802899 -0.403913788733876 37
0.722639434622245 -2.427140018067313 -0.401097968363152 45
0.715276870744454 -2.433438115513979 -0.401723706223313 45
0.707203366319985 -2.435796679225072 -0.401723706223313 46
0.699784853038176 -2.442048337831186 -0.402349444083474 45
0.688255481973671 -2.437113212657168 -0.401097968363152 48
0.677623289535711 -2.431889277866085 -0.399846492642830 48
0.671224587959905 -2.441858712598460 -0.401097968363152 47
0.662696821059108 -2.444186847017450 -0.401097968363152 47
0.655609159727559 -2.450187481304142 -0.401723706223313 47
0.645036675522018 -2.444820991366742 -0.400472230502991 50
0.635077764138781 -2.443345046410292 -0.399846492642830 48
0.627525537836450 -2.449374142910600 -0.400472230502991 48
0.620795998465815 -2.455163690686180 -0.401097968363152 50
0.613177200426210 -2.461149281278094 -0.401723706223313 47
0.600388328630221 -2.448031994030177 -0.399220754782669 50
0.591839444514590 -2.450112826150546 -0.399220754782669 48
0.585111823470444 -2.459850838288991 -0.400472230502991 50
0.576521776959074 -2.461878273450560 -0.400472230502991 48
0.568812088064462 -2.467725517201356 -0.401097968363152 48
0.559320714481189 -2.465843127806027 -0.400472230502991 48
0.549848872861848 -2.461900708910803 -0.399533623712750 51
0.541675732226494 -2.465734410563741 -0.399846492642830 50
0.533913530021252 -2.469447879143394 -0.400159361572911 50
0.526933111126317 -2.479025380286028 -0.401410837293232 48
0.516256703756393 -2.471181457956459 -0.399846492642830 51
0.508024730126930 -2.474903504972471 -0.400159361572911 50
0.500163505046350 -2.480534573895750 -0.400785099433071 48
0.491501776358236 -2.482265358076997 -0.400785099433071 50
0.482834058876086 -2.483965896638210 -0.400785099433071 50
0.474160458213300 -2.485636168858865 -0.400785099433071 50
0.464027587221074 -2.479509484115911 -0.399533623712750 50
0.456082843536501 -2.484999984945115 -0.400159361572911 48
0.449240372450869 -2.494275130666974 -0.401410837293232 48
0.441904430854501 -2.503609301722162 -0.402662313013554 47
0.430707908604730 -2.493532835464126 -0.400785099433071 47
0.421342368476910 -2.491125668020751 -0.400159361572911 48
0.413289410770928 -2.496478953850211 -0.400785099433071 47
0.405835857356781 -2.505706257549439 -0.402036575153393 45
0.397833762062183 -2.508989283079777 -0.402349444083474 47
0.388468240613532 -2.506458555391019 -0.401723706223313 43
0.379125241792941 -2.503893062974215 -0.401097968363152 46
0.370960534315296 -2.509109472669281 -0.401723706223313 43
0.361635673547347 -2.506478816864988 -0.401097968363152 45
0.354535790752385 -2.519462517247097 -0.402975181943635 43
0.344665341592009 -2.512856515235892 -0.401723706223313 45
0.335891735621638 -2.514044312616484 -0.401723706223313 43
0.327114036916469 -2.515201477160511 -0.401723706223313 42
0.319076119608567 -2.522207265784102 -0.402662313013554 40
0.311234349541322 -2.531148125048440 -0.403913788733876 40
0.301460158500756 -2.524373354818038 -0.402662313013554 40
0.291964454538250 -2.519523530579619 -0.401723706223313 34
0.283167897413173 -2.520527326916495 -0.401723706223313 34
0.274154207819326 -2.519536626056169 -0.401410837293232 38
0.267839625072303 -2.544052484466641 -0.405165264454198 39
0.257757789377133 -2.533180544303523 -0.403288050873715 39
0.248527556567365 -2.530133023243093 -0.402662313013554 38
0.240439200446071 -2.538851441530106 -0.403913788733876 38
0.231216736566578 -2.535740832331645 -0.403288050873715 39
0.224288518495435 -2.548261322735736 -0.405165264454198 38
0.214394104569833 -2.537218539256755 -0.403288050873715 38
0.204650328235281 -2.538023047802299 -0.403288050873715 39
0.196397298607798 -2.546600061360761 -0.404539526594037 38
0.188823552840271 -2.559057463051327 -0.406416740174520 38
0.179612658587428 -2.555759956513104 -0.405791002314359 38
0.170163881496452 -2.548487399391477 -0.404539526594037 37
0.161266963652487 -2.549065855927889 -0.404539526594037 37
0.152603762307655 -2.553556970229822 -0.405165264454198 38
0.143911169249189 -2.558018615609754 -0.405791002314359 38
0.135397428443523 -2.566395908165041 -0.407042478034681 37
0.126049468432904 -2.558960959832817 -0.405791002314359 37
0.117827673435130 -2.555397767051663 -0.405165264454198 37
0.109411540954704 -2.567635008287062 -0.407042478034681 37
0.099475228547028 -2.566062295421359 -0.406729609104600 35
0.090587022291082 -2.568368044589370 -0.407042478034681 38
0.081370243760184 -2.560771084238323 -0.405791002314359 38
0.072654368889002 -2.568937866854068 -0.407042478034681 36
0.063490851322182 -2.561276746905553 -0.405791002314359 38
0.054718174415484 -2.569382482711366 -0.407042478034681 38
0.046304021857438 -2.575474979879421 -0.407981084824922 37
0.037170580545981 -2.565745073316481 -0.406416740174520 36
0.028170792492066 -2.561908676922555 -0.405791002314359 35
0.019287190303053 -2.569892687519384 -0.407042478034681 31
0.010348191847927 -2.577845798773190 -0.408293953755003 28
0.001352870631779 -2.583792344816170 -0.409232560545244 20
-0.007642811807450 -2.575879853924239 -0.407981084824922 17
-0.016634263902374 -2.575837482390826 -0.407981084824922 13
-0.025330411074523 -2.591570416995441 -0.410484036265566 9
-0.034350324076531 -2.589491005723419 -0.410171167335485 8
-0.044008256966215 -2.599223180392272 -0.411735511985888 7
-0.053161641094552 -2.603003657227846 -0.412361249846049 8
-0.061338942467831 -2.602823799983843 -0.412361249846049 10
-0.070317254222997 -2.598644522039954 -0.411735511985888 14
-0.079962629567309 -2.602318231404085 -0.412361249846049 18
-0.089181051029510 -2.605971697490712 -0.412986987706210 22
-0.098351498809864 -2.607618494179368 -0.413299856636290 29
-0.106802448354434 -2.591469687205926 -0.410796905195646 33
-0.115747031837511 -2.598994951208127 -0.412048380915968 34
-0.125292386453017 -2.608440593754527 -0.413612725566370 35
-0.135055969629577 -2.611909336191715 -0.414238463426531 36
-0.144063520293475 -2.609449617130289 -0.413925594496451 36
-0.152485111793897 -2.605013535317164 -0.413299856636290 34
-0.162066634751435 -2.612351737178917 -0.414551332356612 33
-0.171442848307196 -2.615712398206373 -0.415177070216773 36
-0.180572344003312 -2.615098015170247 -0.415177070216773 35
-0.189699639482403 -2.614451767990082 -0.415177070216773 34
-0.198824623531250 -2.613773664540194 -0.415177070216773 32
-0.208260594437247 -2.617002015589591 -0.415802808076934 32
-0.218048677040322 -2.624133475798692 -0.417054283797256 32
-0.227259732096849 -2.629300088918261 -0.417992890587497 30
-0.235905397754305 -2.622588486148130 -0.417054283797256 31
-0.245516080543787 -2.621706234222434 -0.417054283797256 31
-0.255621283839291 -2.630663833173094 -0.418618628447658 30
-0.265133738480851 -2.637663586651099 -0.419870104167980 30
-0.274339287327012 -2.636722027642444 -0.419870104167980 28
-0.283541493435533 -2.635748341007980 -0.419870104167980 27
-0.292740244680437 -2.634742538611773 -0.419870104167980 27
-0.303285363831693 -2.645479765195239 -0.421747317748462 26
-0.311358772539411 -2.634596360712818 -0.420182973098060 24
-0.322490051459607 -2.657137039629533 -0.423937400259026 25
-0.329804476234427 -2.640313998903328 -0.421434448818382 23
-0.339773935940580 -2.645024512996294 -0.422373055608623 22
-0.350555856589886 -2.655572687859156 -0.424250269189106 22
-0.360354112423280 -2.658247786097734 -0.424876007049267 20
-0.370991872054831 -2.666756392569729 -0.426440351699669 20
-0.379740297524296 -2.661533997730796 -0.425814613839508 19
-0.389028471432297 -2.660192241747908 -0.425814613839508 18
-0.399947959049065 -2.666562616028464 -0.427066089559830 17
-0.410452840838944 -2.672960255731410 -0.428317565280152 17
-0.421927144413246 -2.685171251522143 -0.430507647790715 15
-0.430043798710037 -2.675880690526114 -0.429256172070394 14
-0.439701994541014 -2.676312499505726 -0.429569041000474 13
-0.451330748609732 -2.688398150316348 -0.431759123511037 11
-0.461379958683631 -2.690700255580711 -0.432384861371198 9
-0.472813306007468 -2.700748049693076 -0.434262074951681 9
-0.484416401898709 -2.716751674885293 -0.437077895322405 9
-0.492836060947224 -2.709213749047624 -0.436139288532164 8
-0.504091593214299 -2.717188104484018 -0.437703633182566 9
-0.515775880241963 -2.727057740591444 -0.439580846763049 11
-0.527638641165483 -2.734847049551736 -0.441145191413451 13
-0.532991044144414 -2.711667397812761 -0.437703633182566 15
-0.541290051849917 -2.703979547165405 -0.436765026392325 16
-0.551119906597247 -2.704009201532565 -0.437077895322405 18
-0.559682775103862 -2.700232490540871 -0.436765026392325 17
-0.570735608857568 -2.705993793167121 -0.438016502112646 19
-0.579405488949879 -2.698089730308332 -0.437077895322405 23
-0.587977071868048 -2.692191017963627 -0.436452157462244 26
-0.600752443306483 -2.707582712589189 -0.439267977832968 21
-0.609330779960015 -2.701615254973395 -0.438642239972807 30
-0.621814333269891 -2.714983951155681 -0.441145191413451 33
-0.629496720705704 -2.705100995806711 -0.439893715693129 34
-0.638497642483231 -2.698930974329261 -0.439267977832968 34
-0.649760690815681 -2.704368624228554 -0.440519453553290 34
-0.660596505947556 -2.709875772499287 -0.441770929273612 36
-0.673848040054154 -2.722893596494411 -0.444273880714256 36
-0.683823417875242 -2.720405530813470 -0.444273880714256 36
-0.693315239205085 -2.718001967990658 -0.444273880714256 37
-0.704303025738350 -2.723337732399279 -0.445525356434577 36
-0.714807492645828 -2.724684100866923 -0.446151094294738 37
-0.728377533195234 -2.737444011551962 -0.448654045735382 37
-0.735870180356193 -2.727256133553734 -0.447402570015060 37
-0.746949343674589 -2.730386944585866 -0.448341176805302 38
-0.759643000794346 -2.739184169109956 -0.450218390385784 38
-0.769199909885689 -2.736515832146834 -0.450218390385784 37
-0.780912137127684 -2.741413357026774 -0.451469866106106 36
-0.789998697701423 -2.738808685839190 -0.451469866106106 38
-0.802324568939940 -2.745514758649017 -0.453034210756509 37
-0.812464022591762 -2.744591524677881 -0.453347079686589 37
-0.824308745210956 -2.749307412056842 -0.454598555406911 37
-0.839065845069036 -2.763424794791880 -0.457414375777635 38
-0.846384842400203 -2.752926462360825 -0.456162900057313 38
-0.855989192585948 -2.749955256142790 -0.456162900057313 37
-0.870332540044319 -2.762022973548493 -0.458665851497957 37
-0.883570005255742 -2.770259939251283 -0.460543065078440 36
-0.892627817015579 -2.765278963656876 -0.460230196148359 36
-0.902275003749429 -2.762146264078391 -0.460230196148359 36
-0.911911196547099 -2.758979908619358 -0.460230196148359 36
-0.924042155025199 -2.763273559071862 -0.461481671868681 37
-0.936214169594182 -2.767516045621679 -0.462733147589003 37
-0.950014985632017 -2.779514867604467 -0.465236099029647 37
-0.958420713014768 -2.772447826228336 -0.464610361169486 37
-0.969396351229753 -2.772814830886138 -0.465236099029647 37
-0.981703052216142 -2.776863781295979 -0.466487574749968 37
-0.994049799849584 -2.780860510001204 -0.467739050470290 37
-1.008450594759917 -2.790378111995619 -0.469929132980854 38
-1.018862574183673 -2.788696382643084 -0.470242001910934 36
-1.029275092337965 -2.786975941378123 -0.470554870841014 38
-1.043142118726938 -2.794469975817782 -0.472432084421497 37
-1.054284840791780 -2.794508144782331 -0.473057822281658 39
-1.069662876149496 -2.805577174465931 -0.475560773722302 37
-1.076608994354585 -2.794453034692778 -0.474309298001980 37
-1.090656462278813 -2.801722842730235 -0.476186511582463 39
-1.098983624347784 -2.794222064173149 -0.475560773722302 37
-1.115534632066708 -2.808921302324158 -0.478689463023106 36
-1.131216894044146 -2.819676967117273 -0.481192414463750 38
-1.139568698270249 -2.812049581935004 -0.480566676603589 38
-1.152370811419381 -2.815367255098313 -0.481818152323911 37
