# This PCD file was generated using the MATLABÂ® pcwrite function
# from Computer Vision ToolboxÂ®.
# .PCD v.7 - Point Cloud Data file format
VERSION .7
FIELDS x y z intensity
SIZE 8 8 8 1
TYPE F F F U
COUNT 1 1 1 1
WIDTH 902
HEIGHT 1
VIEWPOINT 0 0 0 1 0 0 0
POINTS 902
DATA ascii
-1.668305366384054 -0.700605850080670 0.286587939953703 7
-1.685332395773177 -0.700846040347141 0.289090891394347 2
nan nan nan 0
nan nan nan 0
nan nan nan 0
nan nan nan 0
nan nan nan 0
-5.580853166753806 -2.184865470861054 0.949244333864121 1
-5.547923091411896 -2.149669906686756 0.942361217402351 13
-5.569775521588859 -2.136921229607256 0.944864168842994 16
-5.579417195912549 -2.117193453896422 0.945177037773075 16
-5.558669513061532 -2.088259342877571 0.940484003821868 15
-5.558518612638705 -2.066090291130832 0.939232528101546 15
-5.567193329554862 -2.048328313107187 0.939545397031627 15
-5.574663434362548 -2.027909771291083 0.939545397031627 15
-5.569855917785501 -2.006369714896350 0.937668183451144 16
-5.567521508386071 -1.983600226013550 0.936103838800742 18
-5.565438270472167 -1.959900199356337 0.934539494150339 16
-5.579707688562395 -1.943059796019213 0.935790969870661 16
-5.582720728808822 -1.922284904213482 0.935165232010500 16
-5.582248357325505 -1.899265219222600 0.933913756290178 16
-5.580371092644375 -1.880171146141023 0.932662280569856 16
-5.581601946035108 -1.857833876248282 0.931723673779615 16
-5.592126862325571 -1.838597761956577 0.932349411639776 16
-5.608222105639217 -1.821139728200885 0.933913756290178 16
-5.595108612203234 -1.797470104541046 0.930785066989374 16
-5.597893266976189 -1.775756344202814 0.930159329129213 16
-5.599674780854191 -1.756978557458239 0.929533591269052 16
-5.609547326575504 -1.738590927545500 0.930159329129213 16
-5.606736357440908 -1.714151327319458 0.928594984478810 16
-5.616467837264704 -1.695711615265695 0.929220722338971 16
-5.607208373437015 -1.671581415893068 0.926717770898328 18
-5.609219107529318 -1.650882960742899 0.926092033038167 18
-5.618171318942719 -1.634356510713215 0.926717770898328 18
-5.614630004442442 -1.611029810747272 0.925153426247925 18
-5.621842055797008 -1.592940688212080 0.925466295178006 18
-5.617856089635556 -1.570647682313252 0.923901950527603 18
-5.625208715642158 -1.551553374189336 0.924214819457684 18
-5.623232936973553 -1.528852511739750 0.922963343737362 16
-5.637811320016724 -1.512756448770147 0.924527688387764 16
-5.633509157373919 -1.490541257363022 0.922963343737362 16
-5.628864349604451 -1.469357008433824 0.921398999086960 18
-5.630132951543785 -1.448715137406466 0.920773261226799 16
-5.654303267919467 -1.433909251035966 0.923901950527603 10
-5.753430927606949 -1.436624801196134 0.939232528101546 9
-5.752408985715268 -1.416121244206340 0.938293921311305 10
-5.813235670068880 -1.408517867705021 0.947367120283638 5
-5.829402673441729 -1.391985511956677 0.949244333864121 5
-5.834465400416614 -1.370610333380085 0.949244333864121 5
-5.838742500778963 -1.352274086206009 0.949244333864121 5
-5.847511731133521 -1.331742242740074 0.949870071724282 5
-5.844185788314679 -1.310614829374448 0.948618596003960 5
-5.852583081119777 -1.291057889181353 0.949244333864121 5
-5.857275734166609 -1.269598428074752 0.949244333864121 5
-5.869399753797492 -1.250791847624685 0.950495809584443 5
-5.861700590157874 -1.229912578461704 0.948618596003960 5
-5.844676564588891 -1.205056107661346 0.945177037773075 5
-5.866271957798466 -1.188176273982826 0.947992858143799 5
-5.860900000911737 -1.164742138054371 0.946428513493397 5
-5.876362722522489 -1.147571959114966 0.948305727073880 5
-5.880332695392991 -1.127052633860141 0.948305727073880 5
-5.860742372789280 -1.103161675197751 0.944551299912914 5
-5.870574133645331 -1.082748436940379 0.945489906703155 5
-5.878205567557424 -1.062952723619185 0.946115644563316 5
-5.881880152946545 -1.042427481164071 0.946115644563316 5
-5.885126004185058 -1.023943895912930 0.946115644563316 5
-5.876980523293681 -1.001403871713017 0.944238430982834 5
-5.884679443856289 -0.979479221572302 0.944864168842994 5
-5.888229888412878 -0.957904214229119 0.944864168842994 5
-5.887144769880468 -0.939806492808039 0.944238430982834 5
-5.898357013106511 -0.919439711052172 0.945489906703155 5
-5.897781494427610 -0.897220790231625 0.944864168842994 5
-5.893214424507745 -0.874438581120273 0.943612693122673 5
-5.891873321510038 -0.856380969827695 0.942986955262512 5
-5.918442901904966 -0.838104033934701 0.946741382423477 5
-5.903436157178719 -0.817069196224136 0.943925562052753 5
-5.882760406692269 -0.793289502369782 0.940171134891787 9
-5.903390955383173 -0.773003771080644 0.942986955262512 13
-5.904093736706795 -0.752142749175262 0.942674086332431 15
-5.918317610891719 -0.734018731669543 0.944551299912914 13
-5.918882564307418 -0.713119187368239 0.944238430982834 15
-5.911525722221401 -0.691306880098889 0.942674086332431 15
-5.921871119273373 -0.670524406729036 0.943925562052753 15
-5.931916339969216 -0.651746041700855 0.945177037773075 15
-5.942012425460749 -0.631871351239109 0.946428513493397 15
-5.930213544843337 -0.611781903959009 0.944238430982834 13
-5.895068124766061 -0.586327827752883 0.938293921311305 12
-5.908876966504354 -0.566878498296238 0.940171134891787 5
-5.948192646368213 -0.549703036924177 0.946115644563316 5
-5.953917995971001 -0.530325609469825 0.946741382423477 3
-3.290808134940912 -0.281543210018738 0.523116851094532 2
-3.195301494222692 -0.262140156104144 0.507786273520589 21
nan nan nan 0
-3.240390221400876 -0.243077419899038 0.514669389982360 85
-3.203822341180729 -0.228528777846397 0.508724880310831 68
-3.163175214953847 -0.215089014782551 0.502154632779141 50
-3.154085791069082 -0.202860015792450 0.500590288128739 52
-3.160588817955148 -0.193863589614521 0.501528894918980 55
-3.167194437900763 -0.182619282269331 0.502467501709222 52
-3.173700013091560 -0.172436993792114 0.503406108499463 55
-3.164418447979695 -0.160856240608335 0.501841763849061 52
-3.166933829818756 -0.149902776251650 0.502154632779141 55
-3.169411275603838 -0.138933710097125 0.502467501709222 53
-3.175798249943078 -0.128108413400179 0.503406108499463 55
-3.178200121050155 -0.117094757927566 0.503718977429543 53
-3.184493749443264 -0.106753372060232 0.504657584219785 55
-3.165118660672146 -0.094491435729948 0.501528894918980 55
-3.173327977205509 -0.083650750054000 0.502780370639302 57
-3.183474941743073 -0.072799062173124 0.504344715289704 53
-3.183698848307140 -0.062241878563724 0.504344715289704 53
-3.183905591906827 -0.050572620890986 0.504344715289704 53
-3.182073541937052 -0.040544685958722 0.504031846359624 57
-3.182195683021520 -0.029436929434110 0.504031846359624 55
-3.180300460704343 -0.018872504366827 0.503718977429543 52
-3.188248445696479 -0.007790376089016 0.504970453149865 52
-3.188256215283219 0.003338735321676 0.504970453149865 53
-3.182296499062120 0.014996329960543 0.504031846359624 55
-3.180262678113764 0.024423144228511 0.503718977429543 53
-3.190028049437053 0.036191272880170 0.505283322079946 48
-3.189882283576619 0.047326328315927 0.505283322079946 55
-3.197587552636085 0.059163686871381 0.506534797800268 55
-3.187523328236330 0.068438829583883 0.504970453149865 53
-3.195150088752905 0.080319792537395 0.506221928870187 53
-3.198815325425714 0.091027229725998 0.506847666730348 58
-3.198478092819819 0.102192624399700 0.506847666730348 53
-3.200056179293669 0.113985264104775 0.507160535660429 48
-3.193717198904372 0.124923225035849 0.506221928870187 53
-3.201179779850590 0.135848300353916 0.507473404590509 53
-3.200686078106011 0.147021675448502 0.507473404590509 52
-3.204126907300304 0.157829095400952 0.508099142450670 52
-3.205499528341378 0.169676163579291 0.508412011380750 48
-3.196998764615538 0.180419206614358 0.507160535660429 50
-3.200293182980413 0.191814085492101 0.507786273520589 50
-3.205589160593970 0.202240276985516 0.508724880310831 53
-3.212710333339604 0.214514405908133 0.509976356031153 52
-3.213951854046189 0.225305097060695 0.510289224961233 55
-3.234816323296751 0.238117695549295 0.513730783192118 78
-3.224117788435859 0.248648397386673 0.512166438541716 49
-3.209447298617337 0.258789786674559 0.509976356031153 28
-3.222350615428512 0.270588341358204 0.512166438541716 13
nan nan nan 0
nan nan nan 0
nan nan nan 0
nan nan nan 0
nan nan nan 0
nan nan nan 0
nan nan nan 0
nan nan nan 0
nan nan nan 0
nan nan nan 0
nan nan nan 0
-15.231903115539083 1.921536017254732 2.431617324585349 2
nan nan nan 0
-15.147274161009502 2.021077880055957 2.420354043102452 2
-15.139764798960169 2.076581839996714 2.420354043102452 2
nan nan nan 0
nan nan nan 0
nan nan nan 0
nan nan nan 0
nan nan nan 0
nan nan nan 0
nan nan nan 0
nan nan nan 0
-11.031849713580552 1.865897713098685 1.772089619975735 12
nan nan nan 0
nan nan nan 0
nan nan nan 0
-12.703244791667629 2.329189962031533 2.045537064866059 1
-12.500455801674416 2.339396716154488 2.014250171858012 1
-12.298993053263809 2.341709313834916 1.982963278849966 1
-12.220518278302219 2.373214724811920 1.971699997367070 1
-12.018377473835343 2.377523055795448 1.940413104359024 1
-11.982894528442458 2.413999001247199 1.936032939337897 1
nan nan nan 0
nan nan nan 0
nan nan nan 0
nan nan nan 0
-11.843378298958573 2.597435401231448 1.920389492833874 1
nan nan nan 0
nan nan nan 0
nan nan nan 0
nan nan nan 0
nan nan nan 0
nan nan nan 0
nan nan nan 0
nan nan nan 0
nan nan nan 0
nan nan nan 0
nan nan nan 0
nan nan nan 0
nan nan nan 0
nan nan nan 0
nan nan nan 0
nan nan nan 0
nan nan nan 0
nan nan nan 0
-11.930386143296321 3.457067420387035 1.967319832345944 1
-15.421726536576415 4.524240948314073 2.545501615134637 2
-15.462646228887746 4.594925954499072 2.554887683037051 2
-15.469211510010048 4.655704222831835 2.558642110198016 2
-15.483098872115290 4.718887811904080 2.563648013079304 2
-15.493792378670824 4.778355889123808 2.568028178100430 2
nan nan nan 0
-10.965941181130177 3.465966574702655 1.821522910928448 1
-10.976353238127881 3.511446458497813 1.825277338089414 2
-11.009755052029480 3.562421152421164 1.832786192411345 1
-10.951571430393004 3.587989666102314 1.825277338089414 2
-10.984616562709071 3.639196304565603 1.832786192411345 1
-12.470220865503247 4.179739191767114 2.083081336475714 1
-12.489228654207942 4.234660520244327 2.088712977217162 1
-12.496793317863860 4.285920313329240 2.092467404378128 1
-12.507127192764855 4.340762105288233 2.096847569399255 1
-12.558230005747621 4.410136478969000 2.108110850882151 1
nan nan nan 0
nan nan nan 0
nan nan nan 0
-15.182649379241706 5.565076621238504 2.561145061638660 2
-15.070514896771313 5.583725125177722 2.545501615134637 2
-14.957458445980357 5.604269665476841 2.529858168630614 2
-14.847397806560352 5.616287626607881 2.514214722126590 2
-14.643186885007101 5.597546895394871 2.482927829118544 2
-14.622572494581700 5.651179260658028 2.482927829118544 2
-14.418750595954180 5.630334978672074 2.451640936110498 2
-14.332857564930153 5.654533661250839 2.440377654627602 2
-14.195591973810314 5.657723819623029 2.420354043102452 2
-14.177747687079124 5.702292593997622 2.420354043102452 2
-14.090873104021496 5.727440690975592 2.409090761619555 2
-13.888057164378811 5.701571446659474 2.377803868611509 2
-13.751286604783562 5.701593897533744 2.357780257086360 2
-13.732303828832050 5.747163457910212 2.357780257086360 2
-13.576510123522670 5.740527952351928 2.334627956260405 2
-13.510160873839423 5.765359120634030 2.326493364078313 2
nan nan nan 0
nan nan nan 0
-6.717288693828058 2.950081989413481 1.161995206318835 1
-6.671864892777785 2.955170540950684 1.155737827717226 3
-6.621318628018765 2.961858956580790 1.148854711255455 3
-6.586253250703475 2.972423612242987 1.144474546234329 3
-6.478248656093952 2.952308002450695 1.127579624009984 1
-6.432527032173527 2.957271783639297 1.121322245408375 1
-6.392976825691860 2.967521041134130 1.116316342527087 1
nan nan nan 0
nan nan nan 0
nan nan nan 0
-6.302139697295480 3.030306076121873 1.107556012484834 1
-6.100839325026973 2.961092661933117 1.074079036966225 6
-6.122399713215925 2.998007772514542 1.079710677707673 14
-6.108355311148751 3.017610824038639 1.079084939847513 17
-6.124304463619729 3.052131081784693 1.083777973798719 17
-6.127042171094777 3.077562609322846 1.085968056309283 16
-6.131578717259295 3.108036696040529 1.088783876680007 17
-6.131245206631330 3.134816518131828 1.090661090260490 17
-6.130799320723290 3.161631816587620 1.092538303840972 17
-6.141313156958891 3.192879414590523 1.096292731001938 17
-6.148811788633684 3.225460909861568 1.099734289232823 19
-6.155544504156985 3.255067604201590 1.102862978533628 19
-6.151116775221936 3.280252686835390 1.104114454253949 19
-6.151807433649986 3.308253250768907 1.106304536764513 17
-6.157586877052136 3.339123503025551 1.109433226065317 17
-6.158613579416284 3.366156324245825 1.111623308575880 17
-6.168722967382972 3.401105030183540 1.115690604666927 13
-6.160863978025581 3.423461532962473 1.116316342527087 4
-10.921459316630346 6.121320039821545 1.982963278849966 1
-10.815102287226914 6.108927172104569 1.967319832345944 1
-10.878458639805613 6.197416417893121 1.982963278849966 1
-10.857847452908427 6.233456611231253 1.982963278849966 1
-10.773385099041450 6.237578747249157 1.971699997367070 1
-10.816267106299717 6.305330960378792 1.982963278849966 1
nan nan nan 0
-10.770870560514622 6.382568448780792 1.982963278849966 1
-10.748525619096769 6.420126918554884 1.982963278849966 1
nan nan nan 0
-12.752262579162837 7.741308460095656 2.362786159967647 2
-12.763595441295596 7.806228470348838 2.369669276429417 2
-12.765163593305811 7.871619908826085 2.375300917170866 2
-12.785972750856706 7.943094660388133 2.384061247213118 2
-12.784957084504496 8.004449668760380 2.389067150094406 2
-12.810398643170549 8.082759600941895 2.399078955856980 2
-12.810689417876965 8.148741472479195 2.404710596598429 2
-12.823054535095634 8.210148850848681 2.411593713060199 2
-12.840794149112968 8.284846161887605 2.420354043102452 2
-12.792330534990681 8.323316951341186 2.417225353801647 2
nan nan nan 0
nan nan nan 0
nan nan nan 0
nan nan nan 0
-12.857890888443757 8.689092114565851 2.457898314712107 2
-12.851868405376695 8.747243175945375 2.462278479733234 2
-12.862074154101981 8.823342434049113 2.470413071915326 2
-12.881355349991717 8.892889721022401 2.479173401957579 2
-12.543834922956453 8.727936510519292 2.420354043102452 2
-12.838370721458585 8.996204233663422 2.482927829118544 2
-12.855303034906241 9.075140732762584 2.492313897020958 2
-12.886338037396552 9.168002475944490 2.504828654224177 2
nan nan nan 0
-12.913282087651659 9.327064201069296 2.522975052168844 2
-12.867867467127409 9.362785442265295 2.520472100728200 2
-12.765082368090438 9.349472419241847 2.506080129944499 2
nan nan nan 0
-12.623398317623892 9.381801475611926 2.491062421300636 2
-12.549458156703940 9.395028119624000 2.482927829118544 2
nan nan nan 0
nan nan nan 0
nan nan nan 0
-9.323436497863364 7.182605335289165 1.864073085419391 1
-9.245245881474982 7.173932623287932 1.853435541796655 1
-9.154778815325066 7.155070578508948 1.840295046733276 1
-9.116077184828043 7.178799410398482 1.837792095292632 1
-9.080419656065164 7.204796417446736 1.835914881712150 1
-9.082437662958744 7.253010462099197 1.840920784593437 1
-9.098886554434472 7.320923387366628 1.849681114635690 1
-9.114467883301089 7.383384860873374 1.857815706817782 1
-3.908568483195829 3.190023188984696 0.799067247425499 2
-3.885346375086467 3.190323997733723 0.796251427054775 10
-3.858406617050454 3.191951550440408 0.793122737753971 10
-3.842688172048941 3.201607083176262 0.792184130963729 10
-3.811817124495709 3.198494343279589 0.788116834872683 29
-3.800068453451308 3.212443867785778 0.788116834872683 36
-3.764766155753211 3.205200315220682 0.783110931991396 40
-3.735559513140308 3.202892842754102 0.779356504830430 34
-3.719871197161305 3.212039827358997 0.778417898040189 36
-3.686836700549654 3.204918248281947 0.773724864088982 36
-3.669121021194747 3.213203976732423 0.772473388368660 34
-3.650474873178414 3.219459030117706 0.770909043718258 36
-3.628875946107387 3.222999616264790 0.768718961207694 38
-3.596640317830998 3.214638207735422 0.764025927256488 36
-3.568686021317482 3.213259326423425 0.760584369025602 34
-3.562401646627691 3.229055785428444 0.761522975815844 38
-3.530682996289023 3.222826762917524 0.757142810794717 31
-3.571457692973378 3.280674130045360 0.768093223347534 76
-3.555633958390005 3.289096676633064 0.767154616557292 55
-3.540664595480911 3.299413235778647 0.766528878697131 57
-3.542950095645084 3.325888129175723 0.769657567997936 55
-3.555459549348656 3.358706283650121 0.774663470879223 53
-3.553142307565323 3.381247447137674 0.776853553389787 53
-3.566160038849841 3.416241945618010 0.782172325201154 55
-3.546507703111661 3.422431050068085 0.780607980550752 51
-3.565498056712906 3.462455493549265 0.787178228082442 55
-3.552783574166538 3.475500440564701 0.787178228082442 57
-3.560943691722390 3.506667268887915 0.791558393103568 55
-3.565513134814253 3.535767187385210 0.795312820264534 57
-3.564952669128131 3.558736076375247 0.797815771705177 55
-3.566440049538614 3.585162945171509 0.800944461005982 55
-3.572707792487342 3.617888234345352 0.805324626027108 57
-3.575271159471053 3.645851532283682 0.808766184257994 53
-3.592107801109935 3.687401801838472 0.815336431789683 53
-3.571702652225460 3.693442723838911 0.813772087139281 48
-3.592931411774764 3.738828892243503 0.821280941461212 55
-3.588041107926607 3.759922294358909 0.823158155041695 40
-3.594579155873240 3.791870385573488 0.827538320062821 21
nan nan nan 0
nan nan nan 0
nan nan nan 0
nan nan nan 0
nan nan nan 0
nan nan nan 0
-6.748939894691941 7.479690520035533 1.595631543410355 1
-6.716188534147289 7.493203768077914 1.593754329829872 1
nan nan nan 0
nan nan nan 0
-3.994920398462789 4.552127268490460 0.959256139626696 1
nan nan nan 0
nan nan nan 0
-6.797423147804385 7.905523986344143 1.651322212964677 1
-6.739002890759139 7.893147767544177 1.643813358642746 2
-6.715136303335673 7.923822443642040 1.645064834363068 2
-6.682348653283372 7.941168561232633 1.643813358642746 2
-6.663454119903206 7.975057107234810 1.646003441153309 5
-6.663323461282329 8.031714790627211 1.652886557615080 5
-6.671827082946666 8.096452123986044 1.661646887657332 6
-6.689631310357247 8.178955587327051 1.673535907000390 6
-6.674738829984705 8.219124535654689 1.676977465231275 4
-6.650967774011623 8.248524673589293 1.678228940951597 2
-6.626464668855212 8.268222155588592 1.678228940951597 2
-6.610872021807467 8.311005177514691 1.681983368112562 2
-6.580826251458396 8.329781891940994 1.681357630252402 2
-6.554148093004986 8.355811075195026 1.681983368112562 1
-6.539505539447514 8.397340732941688 1.685737795273528 1
-6.498070818973630 8.404489171157344 1.682609105972723 2
nan nan nan 0
-6.444946031086796 8.460200972531132 1.684486319553206 1
-6.412088205332761 8.475225383878554 1.683234843832884 2
-6.378609770463795 8.495510578690460 1.682609105972723 2
-6.383465283671955 8.560956979396012 1.691369436014976 1
-6.359094925650432 8.593823567551331 1.693246649595459 2
-6.318025240135744 8.594659568321543 1.689492222434493 2
-6.284153474531496 8.614566797338986 1.688866484574332 2
-6.267140636800305 8.651355764858449 1.691995173875137 2
-6.232290493620848 8.666764387605848 1.690743698154815 2
-6.205072904063905 8.695980599497402 1.691995173875137 2
-6.174680463649954 8.717587367121872 1.691995173875137 2
-6.146485054745568 8.742319824906073 1.692620911735298 1
nan nan nan 0
nan nan nan 0
nan nan nan 0
-6.077270202615997 8.905605719241409 1.707638620379160 1
-6.001836465859473 8.861343584669932 1.695123863175942 1
-5.595421694323636 8.320590507115167 1.588122689088424 1
-6.071384486187180 9.100215797198672 1.732668134785597 1
-5.983843528246577 9.030324629409444 1.715773212561252 1
-5.937089880334692 9.028050597424603 1.711393047540126 1
-5.937928633594590 9.098347255309299 1.720779115442540 1
nan nan nan 0
-4.304234905448552 6.696819351730658 1.260861788224261 1
-4.311519442849990 6.762519536232935 1.270247856126675 1
-4.251039247512191 6.716690193608755 1.258984574643778 1
-4.198034790552950 6.687054420668871 1.250537113531605 19
-4.180015607628804 6.707644806323475 1.251788589251928 23
-4.143978282531281 6.704436865542851 1.248347031021042 24
-4.112425664637839 6.702988225867920 1.245531210650318 22
-4.083723022051883 6.711265917873168 1.244279734929996 26
-4.049338970193586 6.702082587600715 1.240212438838950 23
-4.022872804662346 6.711093708681726 1.239273832048709 24
-3.994210780590993 6.719001182128324 1.238022356328387 24
-3.966718873519898 6.726096577312951 1.236770880608065 23
-3.942218723393928 6.738197023112316 1.236458011677985 20
-3.933547518723442 6.777544097966329 1.241151045629192 24
-3.943585323510599 6.847039018264518 1.251475720321847 22
-3.951770119726086 6.919769290215912 1.262113263944583 22
-3.960694693042714 6.991959591583752 1.272750807567318 20
-3.965292565579406 7.057407165660871 1.282136875469732 20
-3.970724567464105 7.122278490488865 1.291522943372146 22
-3.972304974622720 7.186921375881766 1.300596142344479 6
-5.145925733372597 9.379784030025160 1.694498125315781 1
-5.101823831788020 9.376867458621220 1.690743698154815 1
-5.059681171671891 9.377234454940307 1.687615008854011 1
-5.021326012567573 9.384388587494584 1.685737795273528 1
-4.994092956205863 9.412328889635429 1.687615008854011 1
-4.966917173402895 9.444556690117585 1.690117960294654 1
-4.935570584987598 9.460975651638398 1.690117960294654 1
-4.904490148010379 9.486020757882807 1.691369436014976 1
-4.755638560164254 9.269383606646601 1.650070737244355 1
nan nan nan 0
nan nan nan 0
-4.435729417026518 8.873414441102192 1.571227766864079 2
nan nan nan 0
-4.476288324992320 9.109055739859231 1.607520562753412 1
-4.441279149767631 9.126176261401282 1.607520562753412 1
-4.426559652507371 9.177207984936912 1.613777941355022 1
-4.403869999236711 9.212207885191367 1.617219499585907 11
-4.368303559137448 9.220383471476177 1.615968023865585 9
-4.334344341459333 9.227666747277198 1.614716548145263 11
-4.302993941988914 9.248864014328301 1.615655154935504 9
-4.270683166416469 9.263827918976977 1.615655154935504 8
-4.241603328629949 9.285866149708198 1.616906630655826 8
-4.227894929804650 9.328997224038730 1.622225402467194 15
-4.232496874024365 9.430936390756404 1.637243111111056 15
-4.246960692409194 9.547797976101174 1.655076640125643 15
-4.253432935030808 9.652947874060407 1.670720086629666 11
nan nan nan 0
-4.230480050422980 9.790123372801164 1.689179353504413 12
nan nan nan 0
-4.157404223164773 9.808506390568335 1.687302139923930 6
-4.096727741204488 9.750493575269154 1.675100251650792 1
-4.092061025619942 9.840225406056591 1.687927877784091 12
nan nan nan 0
-4.009840820605337 9.835627685320306 1.682296237042643 12
nan nan nan 0
-3.930564910567746 9.842055520890581 1.678541809881677 11
-4.771135877845145 12.056661194550337 2.053671657048151 4
-3.858719926166348 9.851353558749393 1.675725989510953 8
-4.684738800628110 12.090493749013174 2.053671657048151 3
-3.773981567142531 9.841825119765991 1.669468610909344 2
-3.759227304435762 9.906651386585535 1.678228940951597 1
nan nan nan 0
-3.660390775673527 9.842494184204000 1.663211232307735 4
-3.624973415417029 9.857698073187308 1.663524101237815 12
-3.591216837737599 9.872147900079927 1.663836970167896 11
-3.554728299998979 9.879047309647946 1.662898363377654 12
-3.521948653460936 9.890780895129598 1.662898363377654 12
-3.486329291164336 9.905486382318385 1.663211232307735 11
-3.451513439067228 9.911396505961887 1.662272625517493 11
-3.415608941544942 9.919648641921595 1.661646887657332 11
-3.380962096915973 9.931510908213124 1.661646887657332 12
-3.346904121112655 9.945124361794731 1.661959756587413 12
-3.315019946582172 9.953715706935830 1.661646887657332 12
-3.272342422162481 9.947034555978783 1.658518198356528 12
-3.241265372780060 9.969668091728806 1.660395411937011 12
-3.204702941598204 9.981480958862287 1.660395411937011 12
-3.173378406552897 9.997701674237105 1.661334018727252 12
-3.136122964930615 10.007380550811552 1.661021149797171 11
-3.097659874517728 10.000742891768818 1.658205329426447 6
-3.054053982097463 9.989360464335421 1.654450902265482 6
-3.066613414152996 10.150710502134935 1.679480416671919 9
-3.092146772520142 10.365791689473266 1.713270261120609 2
-3.113982960773507 10.573592688767480 1.745808629848977 6
-3.128890961020150 10.762701580386580 1.775218309276540 8
-3.158315797396656 11.007105220071979 1.813701187676437 9
-3.449783700519849 12.183160629081494 2.005489841815760 9
-3.479572345984861 12.445653416320964 2.046788540586381 9
-3.502696026673273 12.707794250888538 2.087774370426921 8
-3.543510246869510 13.024314165721957 2.137833399239795 8
-3.577886572065829 13.334234624567477 2.186640952332347 8
-3.622634850695827 13.682111367330883 2.241705884026508 7
-3.627807581299566 13.907464286141094 2.276434335265439 35
-3.575269467544410 13.894548293259430 2.272367039174394 28
-3.523833198363714 13.895455067826470 2.270489825593911 33
-3.472463360109055 13.885984097864524 2.267048267363026 31
-3.426333737530940 13.907610791781272 2.268612612013428 31
-3.375437069145886 13.909887876819214 2.267048267363026 31
-3.322596927353414 13.914480606811139 2.265796791642704 31
-3.274174470548667 13.915807880335036 2.264232446992302 31
-3.221812380568173 13.921941314964702 2.263293840202060 31
-3.179611710850121 13.927587674355863 2.262668102341900 30
-3.128110596097931 13.937220558505704 2.262355233411819 9
-3.086681292523033 13.980846512440632 2.267674005223187 41
-3.026204729974161 13.949595459710485 2.260790888761417 28
-2.981127740478082 13.953238371740868 2.259852281971175 33
-2.934027612777808 13.971292272528366 2.261103757691497 33
-2.879164538194711 13.976650852498734 2.260165150901256 31
-2.828792183375180 13.978871334673485 2.258913675180934 33
-2.778690936435268 13.956691600581413 2.253907772299646 28
-2.228605164220389 11.401422218625921 1.839982177803196 8
-0.544622825987666 2.836183010005731 0.457414375777635 2
-0.534224037475689 2.838160102357711 0.457414375777635 9
-0.525251227185502 2.847869516851111 0.458665851497957 19
-0.517416140597696 2.861348741879805 0.460543065078440 22
-0.504625042660066 2.841565726629955 0.457101506847555 23
-0.495559858623203 2.851180978102317 0.458352982567876 20
-0.485770466596377 2.850861327402898 0.458040113637796 11
nan nan nan 0
-0.467265072062495 2.865962212687883 0.459917327218279 1
-0.459746629999438 2.883181666508228 0.462420278658922 1
-0.449573948415140 2.880786883300270 0.461794540798762 1
-0.441391787512637 2.898038151684101 0.464297492239405 1
-0.430615294640523 2.891670599257022 0.463046016519083 1
-0.417743554310008 2.877590382253978 0.460543065078440 2
-0.405924787560631 2.859330893002034 0.457414375777635 3
-0.396794490550767 2.870583332088236 0.458978720428037 8
-0.386717017686053 2.863985285870772 0.457727244707716 4
-0.380589019996888 2.898679075793596 0.463046016519083 2
-0.366463359066619 2.868638677275388 0.458040113637796 2
-0.359369411318880 2.893424170130744 0.461794540798762 2
-0.349740548649293 2.898583280589933 0.462420278658922 1
-0.341458744575347 2.915482175535775 0.464923230099566 1
-0.329496261341712 2.900954273966903 0.462420278658922 2
-0.317423302872831 2.884415051395156 0.459604458288198 3
-0.307143655616755 2.883541227511629 0.459291589358118 8
nan nan nan 0
-0.291111082202082 2.926894444073580 0.465861836889808 41
-0.277874218965178 2.896431205211619 0.460855934008520 32
-0.267903532300517 2.893402817433851 0.460230196148359 17
-0.258871097513830 2.912073855769767 0.463046016519083 4
-0.250559985949688 2.928661785162726 0.465548967959727 2
-0.238074300737834 2.901955885695778 0.461168802938601 2
-0.228407061569315 2.908677183205275 0.462107409728842 3
-0.217513654766799 2.899607541581817 0.460543065078440 8
nan nan nan 0
-0.199298795968654 2.938535916494699 0.466487574749968 41
-0.189045283950528 2.915459468889670 0.462733147589003 32
-0.178599508759879 2.920076156326413 0.463358885449164 33
-0.168687095609836 2.916708195534324 0.462733147589003 33
-0.157782040574183 2.913361901574528 0.462107409728842 30
-0.148320685698085 2.917814765936389 0.462733147589003 30
-0.138090628649951 2.928204708858187 0.464297492239405 27
-0.128293083483211 2.926673052129820 0.463984623309325 23
-0.117996686550072 2.925129276827620 0.463671754379244 11
-0.522548236803230 14.250666992748686 2.258600806250854 33
-0.472735448388158 14.250429915900389 2.258287937320773 37
-0.422696274934630 14.242120715870980 2.256723592670371 33
-0.372927711558361 14.241534733579162 2.256410723740290 31
-0.325518387186018 14.234793660101781 2.255159248019968 31
-0.230301399473056 11.994251782231004 1.900053012378644 9
-0.226541498420467 14.262395954813400 2.259226544111014 26
-0.176926411073132 14.276926415930856 2.261416626621577 28
-0.129724865800246 14.293236988284344 2.263919578062221 37
-0.077219096644122 14.271887623330452 2.260478019831336 33
-0.029916210499993 14.283917453493055 2.262355233411819 33
0.019944148433775 14.283934858042354 2.262355233411819 33
0.014425316290737 2.951797007214055 0.362439427286909 7
0.127386381106343 15.205273445198818 1.867038340966859 47
0.180744622254995 15.228555578015007 1.869963205208583 45
0.233474273351974 15.200043869584789 1.866550863593239 42
0.284137637951417 15.213079289089073 1.868257034400911 42
0.337415452921108 15.219933199028020 1.869231989148152 42
0.390948275557964 15.234538186240840 1.871181898642635 42
0.444008653466656 15.229112209773744 1.870694421269014 42
0.497165470501643 15.227469549376018 1.870694421269014 42
0.550603039493692 15.233576534740068 1.871669376016255 45
0.604561057991865 15.251397108739608 1.874106762884358 42
0.658393536370549 15.263076616103946 1.875812933692030 47
0.711945022408259 15.266634217767120 1.876544149752461 42
0.765032396170665 15.260090851460623 1.876056672378840 45
0.818720647257928 15.265256393933315 1.877031627126082 42
0.872001348166808 15.262305524381423 1.877031627126082 23
0.927193816273144 15.290871934656977 1.880931446115046 40
0.981325663322856 15.299428395521314 1.882393878235908 40
1.031921366568149 15.294109491742741 1.882150139549098 40
1.086144764788874 15.302294900758140 1.883612571669959 38
1.140290413487316 15.308308360984743 1.884831265104011 33
1.195263103947595 15.324025552955231 1.887268651972114 33
1.249391750549200 15.327674068016421 1.888243606719355 26
1.303055885649219 15.325197450770926 1.888487345406165 14
1.592554715778488 17.986031681691202 2.217047095226443 68
1.654236075333906 17.968502653467684 2.215584663105581 46
1.719025490959294 17.984355764171553 2.218265788660494 50
1.782966813883311 17.990098164447506 2.219728220781356 50
1.845550438947812 17.981790128100176 2.219484482094546 50
1.910193449749710 17.993004398098371 2.221678130275838 50
1.972011007578511 18.006303972564407 2.224115517143941 43
2.010545989950493 17.784305204554723 2.197548000281619 12
2.034911967918843 17.453813910578692 2.157574855644731 9
2.069780837234885 17.229802952045709 2.130763600095599 14
2.101199262947355 16.965995727015574 2.099077570810260 17
2.129553022744258 16.716348960826966 2.069097712332594 16
2.156404552006418 16.490710019448965 2.042042718096651 10
1.983521632705138 14.767488148993461 1.829502583198074 13
2.025026109097691 14.687714265551039 1.820484251786093 15
2.066553924283178 14.611762513893396 1.811953397747733 13
2.109000520642736 14.545523394128178 1.804641237143424 18
nan nan nan 0
2.209002439830319 14.520632883922948 1.803422543709372 45
2.259980852375612 14.514795020552056 1.803666282396183 51
2.311569916757523 14.512698928438677 1.804397498456614 51
2.365086406403929 14.522175137324741 1.806591146637906 47
2.393274951549153 14.378718405347918 1.789773177247996 20
2.416830721469708 14.213716436501954 1.770274082303172 20
2.434509809630311 14.021345505017548 1.747362645743005 19
2.453993457116720 13.846618274833981 1.726644857364130 21
2.477232584485645 13.699275656096937 1.709339410600599 21
2.494072511793682 13.522658704127133 1.688377883534913 19
2.511544299410559 13.355847644471412 1.668635049903279 23
2.528255950769113 13.191030909275584 1.649135954958456 22
2.542339104739225 13.042736694807568 1.631586769508114 24
2.560789777070771 12.897486908063129 1.614525061431394 26
2.578257723990343 12.752268893940911 1.597463353354673 22
2.592742516215633 12.597366052044904 1.579182951843901 28
2.608212470299275 12.452233893143294 1.562121243767180 28
2.624356113765950 12.314914873539172 1.546034490437701 26
2.642937325244274 12.193156764971233 1.531897646602704 28
2.656855219840798 12.053973309276222 1.515567154586414 28
2.669055543786937 11.921120034093136 1.499967878630555 28
2.683342623776726 11.791722977791100 1.484856080048317 28
2.695417526840947 11.656570720828066 1.469013065405648 28
2.706581940957366 11.521479375516364 1.453170050762978 30
2.728654513274828 11.418326982286244 1.441470593796084 30
2.741343999010282 11.296844490622695 1.427333749961087 28
2.750793917449375 11.173966716003175 1.412953167439280 31
2.764756802683555 11.064151084845138 1.400278755725145 31
2.776522958104443 10.948602796251562 1.386873127950578 33
2.791968562090181 10.850410681315262 1.375661148357305 31
2.802881896096352 10.745051658519218 1.363474214016790 31
2.811430110746567 10.625816089269215 1.349581108868603 20
2.816832496485504 10.505227617797345 1.335444265033606 18
2.838382105404214 10.439779913539686 1.328375843116107 35
2.848652211396913 10.327883986431102 1.315457692715162 33
2.856357503388183 10.216553066154255 1.302539542314216 33
2.867108792574019 10.118664748735474 1.291327562720943 37
2.874472642683152 10.011286918873022 1.278896889693617 33
2.884380918207154 9.921640432207134 1.268659864847585 39
2.895442472880918 9.831534002484030 1.258422840001553 37
2.907045299139159 9.745276734771432 1.248673292529141 39
2.912340629275941 9.640056511508739 1.236486358188626 41
2.924411743616602 9.553391479000068 1.226736810716215 37
2.935997708520352 9.472969078421201 1.217718479304234 45
2.943636895865541 9.387414813729507 1.207968931831822 37
2.954766909348904 9.308968012001721 1.199194339106651 41
2.959920923278995 9.213549091826188 1.188226098200188 45
2.973037719212282 9.144638243339593 1.180670198909069 48
2.983228354120041 9.068206103931487 1.172139344870708 50
2.994802646843567 8.997465540551495 1.164339706892779 39
2.999929468213373 8.914110042709121 1.154833898107178 43
3.004798429252711 8.826537394289737 1.144840611947955 52
3.016848285948714 8.761563608349917 1.137772190030457 50
3.029787043155948 8.700363259040330 1.131191245486579 50
3.034423070231861 8.616711345515618 1.121685436700977 46
3.043173644605377 8.546224464415987 1.113885798723048 46
3.052814213922397 8.479517684319907 1.106573638118739 52
3.057952759591687 8.401656156737110 1.097799045393569 54
3.068068816130010 8.338766856112112 1.090974362162880 52
3.076399422084028 8.272188756835417 1.083662201558571 52
3.086398176995015 8.211229278179333 1.077081257014693 56
3.087550028882907 8.128032817446273 1.067575448229092 52
3.098829904727492 8.072727898151724 1.061725719745645 50
3.105454360135227 8.006339317279528 1.054413559141336 54
3.109543526489996 7.938698136147832 1.046857659850217 50
3.116053076911522 7.874266668239621 1.039789237932718 52
3.122776794110874 7.807498970794295 1.032477077328409 54
3.129933052453343 7.746856150200407 1.025896132784532 60
3.136704239594276 7.686259107025550 1.019315188240653 61
3.149898903268518 7.642227572735302 1.014927891878068 54
3.151025427982347 7.577306466700309 1.007615731273759 60
3.156703351233541 7.516844371680684 1.001034786729881 61
3.165625118015278 7.461365847620247 0.995185058246434 61
3.174453622142580 7.410126787804516 0.989822807136608 60
3.182963192562519 7.358917497052107 0.984460556026781 58
3.188770909527447 7.302281967028795 0.978367088856524 60
3.190218473854612 7.236614015918898 0.971054928252215 64
3.196896390002699 7.183720889540650 0.965448938455578 60
3.205684398300099 7.136302180581271 0.960574164719373 64
3.218279188091817 7.097949763643750 0.956918084417218 64
3.217428785857122 7.030715713879388 0.949362185126099 64
3.221974884122370 6.976189940809007 0.943512456642652 60
3.227857012696032 6.925317126128433 0.938150205532825 60
3.233423466295383 6.874488731512599 0.932787954422999 66
3.242079279767765 6.830879750208864 0.928400658060413 66
3.246183142516940 6.778342644442134 0.922794668263777 66
3.242433777595678 6.716268654517862 0.915726246346278 60
3.253688356069739 6.679924507119132 0.912313904730934 64
3.265888335768682 6.643014024285671 0.908901563115590 66
3.267888377456327 6.588892390717378 0.903051834632143 68
3.273103525302290 6.541939412737942 0.898177060895937 68
3.272664424931738 6.484397677097732 0.891839855038869 62
3.283571516016826 6.449936860534032 0.888671252110335 64
3.285210392542743 6.397820286568231 0.883065262313699 66
3.294742005112127 6.361635784832119 0.879652920698354 66
3.297627688865066 6.313146378342018 0.874534408275338 66
3.299290026426430 6.262958492815622 0.869172157165512 64
3.305299078277597 6.221601684871997 0.865028599489737 62
3.311855368225942 6.184357315286808 0.861372519187582 66
3.320217217496773 6.148305617187404 0.857960177572238 64
3.321722549992238 6.100067572991184 0.852841665149222 70
3.319110158592776 6.044934180315416 0.846748197978965 68
3.325768455871481 6.007260928163638 0.843092117676810 63
3.334139440835763 5.973081840929042 0.839923514748276 63
3.340365320746054 5.935457884783785 0.836267434446122 65
3.341471258217480 5.889230855911846 0.831392660709916 65
3.343281047926385 5.844791959420919 0.826761625660520 70
3.346804830949751 5.803851905222638 0.822618067984745 68
3.352079026425300 5.766391199297060 0.818961987682591 63
3.360143540777555 5.734102789324345 0.816037123440867 61
3.364000519359980 5.697288262541631 0.812381043138713 68
3.361531514482887 5.647982874128659 0.807018792028887 70
3.367950444828106 5.614085025599940 0.803850189100353 68
3.375200990755810 5.581910147610860 0.800925324858629 68
3.380266662333379 5.548648259182853 0.797756721930095 65
3.384034197546104 5.511440167579122 0.794100641627941 63
3.385494182707340 5.470897636071118 0.789957083952166 63
3.389863985427628 5.435465530072196 0.786544742336822 65
3.396140540887988 5.403431253674952 0.783619878095098 68
3.399048306453823 5.366388644565896 0.779963797792944 61
3.404943191191129 5.334411716441350 0.777038933551220 61
3.406360870769226 5.295781106468262 0.773139114562256 59
3.412949083374517 5.265534829575036 0.770457989007342 57
3.419367787708129 5.235307309063257 0.767776863452429 59
3.426708504208630 5.206757562318979 0.765339476584326 59
3.430600433168235 5.173257409727134 0.762170873655792 65
3.425892387008984 5.131086702206276 0.757539838606397 61
3.430485893407689 5.099331993074726 0.754614974364673 63
3.432672054637103 5.064321590288669 0.751202632749329 61
3.438014316152211 5.034276225556146 0.748521507194416 59
3.445187663362459 5.005289646924743 0.746084120326313 57
3.446801434517370 4.970395809200238 0.742671778710969 59
3.449350671422172 4.937179255259739 0.739503175782435 61
3.455137907956971 4.908875641102637 0.737065788914332 61
3.457621942452940 4.877956908972116 0.734140924672608 63
3.459631389690901 4.844856459412341 0.730972321744075 65
3.458813305578780 4.806363707928127 0.727072502755110 65
3.460422941181165 4.773367387072041 0.723903899826576 63
3.468380802171618 4.752851453271664 0.722441467705714 61
3.476719904977565 4.729519566947374 0.720735296898042 59
3.475487801599006 4.693424968832754 0.717079216595888 63
3.472859392968286 4.655805707232742 0.713179397606923 63
3.479973780886558 4.628157057453409 0.710985749425630 65
3.481725519739200 4.596992189254773 0.708060885183907 63
3.486522238927086 4.573402012449572 0.706110975689424 63
3.487957182563829 4.542310423701628 0.703186111447701 63
3.486788753736966 4.508124317037854 0.699773769832357 63
3.489084246758713 4.478699918984801 0.697092644277444 61
3.494893223224333 4.453999768358671 0.695142734782961 63
3.499341530995369 4.427756363309628 0.692949086601669 65
3.507358218447354 4.406195698577714 0.691486654480807 68
3.504091767304158 4.370693993811083 0.687830574178652 68
3.515098131851941 4.351644572056235 0.686855619431411 68
3.518991985732155 4.325489265907009 0.684661971250119 70
3.516964353181800 4.293831916526568 0.681493368321585 70
3.523088737009032 4.270810124233607 0.679787197513913 70
nan nan nan 0
3.531162758916619 4.220228813937303 0.675643639838138 8
3.531253675774452 4.189044870407750 0.672718775596414 42
3.522729518502819 4.149453671669804 0.668331479233829 42
3.549367645080739 4.152839323682334 0.670768866101932 87
3.528877114628542 4.099802521427992 0.664187921558054 57
3.539978420063691 4.082341728152313 0.663456705497623 68
3.542455282748463 4.056503141716542 0.661263057316330 70
3.545402176515037 4.032806662843098 0.659313147821848 70
3.551562413897245 4.011488608489879 0.657850715700986 72
3.550385565180030 3.980667088271970 0.654925851459263 70
3.552320711782997 3.954958183273424 0.652732203277970 68
3.557428057220099 3.934321962280185 0.651269771157108 68
3.559111191164558 3.908670325764234 0.649076122975816 64
3.562678277745268 3.883896388049934 0.647126213481333 62
3.561397195685204 3.855396807491166 0.644445087926420 64
3.566733949588505 3.836919694009914 0.643226394492368 64
3.570609267740718 3.814301673927697 0.641520223684696 66
3.577755814426994 3.793968012871554 0.640301530250645 66
3.578674888056281 3.768501078205540 0.638107882069352 66
3.580178284659368 3.745133707090167 0.636157972574870 66
3.572578685416603 3.711161932977111 0.632501892272715 68
3.583392880227613 3.695192720994914 0.632014414899095 66
3.585174361500060 3.671299976394176 0.630064505404612 68
3.588979418359124 3.650897173032674 0.628602073283751 66
3.586339516237794 3.622828707165922 0.625920947728837 66
3.586350508649440 3.597635096130378 0.623727299547545 62
3.600293113912245 3.586495453414211 0.623971038234355 64
3.600089168926990 3.561341720895844 0.621777390053062 64
3.606834195289262 3.543188877834546 0.620802435305821 64
3.600707803305220 3.512556869905431 0.617633832377287 66
3.605818037802730 3.493060642865803 0.616415138943236 66
3.612266724270263 3.474947840242581 0.615440184195995 66
3.618632965258110 3.456832646302939 0.614465229448754 68
3.622036475782650 3.435983023614665 0.613002797327892 66
3.616669023831740 3.406984896887169 0.610077933086168 68
3.619841529159563 3.386202958441284 0.608615500965306 66
3.627276326715411 3.369493603765356 0.607884284904876 70
3.626759039716033 3.346676919054789 0.605934375410393 66
3.634028336082587 3.329973451615140 0.605203159349962 66
3.623606432971243 3.297228158714297 0.601547079047808 64
3.629202268734782 3.279235889063702 0.600572124300567 66
3.640626827789626 3.266547630800987 0.600572124300567 66
3.638667715574560 3.241934677773842 0.598378476119274 62
3.641041534015657 3.221321434441182 0.596916043998412 62
3.641824561224604 3.199421052646476 0.595209873190740 64
3.646986866048053 3.181469418456737 0.594234918443499 64
3.647566975755678 3.159621629341350 0.592528747635827 64
3.654058991334541 3.142986568451807 0.591797531575396 64
3.652931991832445 3.119898659535680 0.589847622080914 66
3.650174512310818 3.095573103100048 0.587653973899621 66
3.654884082489511 3.077698177542952 0.586679019152380 66
3.662559199907585 3.062374827404273 0.586191541778759 68
3.664062594559565 3.041963374445543 0.584729109657898 68
3.670063467529908 3.025366854544431 0.583997893597467 66
3.659095589919537 2.994935037803158 0.580585551982123 64
3.666446524185921 2.979640265052224 0.580098074608502 66
3.669100650025958 2.960591002153148 0.578879381174450 64
3.675285913293303 2.946566181365261 0.578391903800830 64
3.683995839628599 2.932482796671527 0.578148165114020 64
3.674976484213271 2.902321543790151 0.574979562185486 62
3.675712255871508 2.882126560989025 0.573517130064624 60
3.683182590717570 2.869344807124648 0.573273391377814 60
3.686895122398077 2.851612676340786 0.572298436630573 60
3.688954357966347 2.832680651212149 0.571079743196521 64
3.679875764936124 2.805344611301013 0.568154878954798 60
3.688062966369084 2.791284380505931 0.567911140267987 61
3.694609834768575 2.776008745594808 0.567423662894367 60
3.704277404797615 2.763095238151118 0.567423662894367 61
3.699541979171705 2.739516047555437 0.565230014713074 60
3.694687250472924 2.716003713391335 0.563036366531781 61
3.697731258854406 2.698409625441212 0.562061411784540 60
3.701836983049601 2.682638134802112 0.561330195724109 60
3.707955676773882 2.667381514585713 0.560842718350489 60
3.708013061335179 2.646853383235530 0.559380286229627 58
3.694553802253317 2.617826550178016 0.555967944614283 56
3.703669213719432 2.604914202024371 0.555967944614283 60
3.706228774659853 2.587424791386558 0.554992989867042 60
3.714788606364439 2.575120267331876 0.554992989867042 60
3.717213311359806 2.557636646322433 0.554018035119800 58
3.714643414884476 2.536809000456174 0.552311864312128 56
3.718546320189247 2.520485678015498 0.551580648251698 58
3.718312108111517 2.499544161432703 0.550118216130836 56
3.730317119177774 2.488753013187468 0.550605693504456 58
3.729843514030030 2.471539051886852 0.549387000070405 56
3.723520816890984 2.448687844913651 0.547193351889112 58
3.732045647619231 2.435675413460240 0.547193351889112 58
3.733860372024216 2.418316808205853 0.546218397141871 58
3.735599465754104 2.400975264342243 0.545243442394630 60
3.740610372561382 2.385786029647298 0.544755965021009 60
3.733819226712601 2.363159773391726 0.542562316839717 60
3.733640132794453 2.344833136959780 0.541343623405665 60
3.741802381289069 2.331786015220410 0.541343623405665 60
3.749919037102509 2.318710481404312 0.541343623405665 60
3.744453792416170 2.297301943117898 0.539393713911183 58
3.742276223616850 2.278024276039091 0.537931281790321 58
3.740009820538561 2.258789878587526 0.536468849669459 60
3.744466075133279 2.243680409667973 0.535981372295839 58
3.748862458285512 2.228567377791963 0.535493894922218 60
3.756618770803729 2.215467828551367 0.535493894922218 60
3.750622148304892 2.194321835159712 0.533543985427736 58
3.753108259076956 2.178227019492568 0.532812769367305 60
3.757625602216257 2.162476269713210 0.532325291993684 60
3.763427190014949 2.148362401013090 0.532081553306874 60
3.760167377856787 2.130000149937412 0.530619121186012 58
3.757195783048958 2.111027485907454 0.529156689065150 56
3.765909388226075 2.099523199863899 0.529400427751961 60
3.764529110090437 2.081562066049108 0.528181734317909 56
3.771772182862570 2.068408725594884 0.528181734317909 56
3.775481555004967 2.053333338502369 0.527694256944289 56
3.767256016397313 2.031003500023564 0.525500608762996 56
3.767320136440945 2.014097273680177 0.524525654015755 56
3.777485824561417 2.003453532554790 0.525013131389375 56
3.780942281854783 1.988407478250394 0.524525654015755 56
3.782579610343116 1.972443884672916 0.523794437955324 56
3.777098221371402 1.952846350182153 0.522088267147652 56
3.775059301689747 1.935122258645466 0.520869573713600 60
3.785330485930291 1.923731773810577 0.521357051087221 60
3.792022501440357 1.910506784560490 0.521357051087221 60
3.795116495324083 1.895484548630893 0.520869573713600 60
3.789256893072291 1.876060116144272 0.519163402905928 60
3.786872192011427 1.858448890688323 0.517944709471877 61
3.802261815560156 1.849560609176221 0.519163402905928 60
3.799754224063701 1.831966461112253 0.517944709471877 58
3.800752476866454 1.816124117957427 0.517213493411446 60
3.796304209901348 1.797748366335774 0.515751061290584 60
3.802556394396135 1.784485839174608 0.515751061290584 61
3.805162281625635 1.769527465054620 0.515263583916963 61
3.811315902825023 1.756234189384241 0.515263583916963 61
3.810199956463360 1.739621653599808 0.514288629169722 60
3.810823209540836 1.723856504777985 0.513557413109291 63
3.807759905996325 1.706484554459369 0.512338719675240 60
3.811583700385340 1.693042357829021 0.512094980988430 60
3.815653321843161 1.678927643843397 0.511851242301619 61
3.817851111850807 1.664012015478918 0.511363764927999 60
