# This PCD file was generated using the MATLAB® pcwrite function
# from Computer Vision Toolbox®.
# .PCD v.7 - Point Cloud Data file format
VERSION .7
FIELDS x y z intensity
SIZE 8 8 8 1
TYPE F F F U
COUNT 1 1 1 1
WIDTH 847
HEIGHT 1
VIEWPOINT 0 0 0 1 0 0 0
POINTS 847
DATA ascii
3.809257298947385 2.450196628024888 0.880392704667378 54
3.809512520109107 2.431603409448885 0.878484614713612 52
3.824611382607903 2.422492984376278 0.880011086676625 55
3.824733136566014 2.403904232951105 0.878102996722859 54
3.837680720695798 2.394325354467893 0.879247850695119 55
3.827653044181829 2.369547547205129 0.875050052796835 54
3.832966053069880 2.353448065702072 0.874286816815328 54
3.836127880195404 2.336989944246675 0.873141962843069 52
3.843856525790276 2.324256036210741 0.873141962843069 52
3.851946275323058 2.310824312825918 0.873141962843069 54
3.850266596705837 2.290667912297496 0.870852254898550 52
3.848094700625813 2.271226601870511 0.868562546954032 52
3.855605201320936 2.258453372017158 0.868562546954032 49
3.863465185113873 2.244981038993816 0.868562546954032 49
3.872979006849250 2.232461791546142 0.868944164944785 51
3.867113556783224 2.211132997425990 0.865891221018760 51
3.869685142621754 2.194715156381878 0.864746367046501 52
3.877322552742259 2.181194063506529 0.864746367046501 52
3.884912718911067 2.167646393469860 0.864746367046501 52
3.892455548644400 2.154072311345954 0.864746367046501 52
3.886182367687383 2.132915152936611 0.861693423120476 52
3.890155235850941 2.117459669947547 0.860930187138970 54
3.897522849287577 2.103867593779160 0.860930187138970 54
3.896188622078353 2.085617236631574 0.859022097185205 54
3.908647329194836 2.074765739093102 0.860166951157464 52
3.907179318973938 2.056537258730727 0.858258861203699 55
3.910496921170239 2.041751963937558 0.857495625222192 55
3.914113180949691 2.026284190320261 0.856732389240686 55
3.914526486802742 2.008339917238374 0.855205917277674 57
3.928512629810858 1.998223743889187 0.856732389240686 57
3.926353196996422 1.980763991439818 0.854824299286921 58
3.917440222717423 1.959143082201108 0.851389737370143 55
3.928112766420891 1.946515194980291 0.852152973351649 55
3.931359138802683 1.931060547174382 0.851389737370143 57
3.938075846849337 1.917325778151087 0.851389737370143 57
3.935903816380041 1.899301471306696 0.849481647416377 55
3.933325633248576 1.882002265545890 0.847573557462612 55
3.938097166311995 1.867419750987803 0.847191939471859 55
3.957029587183956 1.859506729286640 0.849863265407131 55
3.963496369401780 1.845682789606718 0.849863265407131 57
3.944958051197752 1.820320550782697 0.844520613536587 55
3.942360674490500 1.802457335786954 0.842612523582822 52
3.953993390778205 1.791115226193906 0.843757377555081 55
3.962012605535728 1.778106146936922 0.844138995545834 55
3.971783096279758 1.765860485787736 0.844902231527340 55
3.959955770775407 1.744072403105203 0.841086051619810 52
3.966019594171869 1.730238952403804 0.841086051619810 55
3.968430705309583 1.714826901664944 0.840322815638303 54
3.979807094753129 1.703281435803499 0.841467669610563 54
3.991151169902508 1.691677414310198 0.842612523582822 55
3.986170410847057 1.673176326991605 0.840322815638303 54
3.981109253359766 1.654730679966487 0.838033107693785 55
3.993836168853792 1.644509765420008 0.839559579656797 55
3.992280334200085 1.627594004525808 0.838033107693785 52
3.999757929537682 1.614383242249425 0.838414725684538 54
3.990783944845533 1.594584020721507 0.835361781758513 51
3.998427348034494 1.580668122113364 0.835743399749266 52
3.998435726993470 1.564555209792582 0.834598545777007 51
4.007263267249944 1.552705960742904 0.835361781758513 54
4.014491910218957 1.539411469543504 0.835743399749266 52
4.014334369876469 1.523299325219898 0.834598545777007 54
4.014113328188807 1.507207063436878 0.833453691804748 52
4.019350007305765 1.493186010645756 0.833453691804748 52
4.020852237816156 1.477792233850786 0.832690455823242 51
4.033366558628969 1.466431151172251 0.834216927786254 52
4.023681423515649 1.447028069523420 0.831163983860229 52
4.034257164996299 1.434947777844878 0.832308837832488 54
4.037389475891544 1.420205379811881 0.831927219841735 52
4.040468044358295 1.405458606491755 0.831545601850982 51
4.054631976882729 1.394538803926622 0.833453691804748 54
4.048322719341189 1.376584756562251 0.831163983860229 52
4.045659517339203 1.359942891674395 0.829637511897217 52
4.057834361079952 1.348288815488896 0.831163983860229 52
4.064381296335964 1.334728657831498 0.831545601850982 54
4.070882984728567 1.321139215046560 0.831927219841735 54
4.064252930574230 1.303324102121870 0.829637511897217 52
4.058970602290549 1.287581319292204 0.827729421943451 54
4.076554286651215 1.277514675417884 0.830400747878723 54
4.081429527542238 1.261852451607872 0.830400747878723 54
4.089564688598158 1.248744605475694 0.831163983860229 54
4.078861428539039 1.229927458151725 0.828111039934204 52
4.083129826741811 1.215682081594725 0.828111039934204 52
4.091115614746244 1.202529193618466 0.828874275915711 52
4.093402808650392 1.187694136508862 0.828492657924958 54
4.097523696458137 1.173398258362645 0.828492657924958 54
4.097816126917464 1.158020290851726 0.827729421943451 54
4.103524754635313 1.144952703666962 0.828111039934204 54
4.107496385333661 1.130621753731104 0.828111039934204 55
4.111417967484801 1.116277027525979 0.828111039934204 55
4.119082346810843 1.102934293109290 0.828874275915711 52
4.117212587882982 1.087045771909850 0.827729421943451 54
4.119082056678978 1.072172850635537 0.827347803952698 54
4.130406184724104 1.059739677429358 0.828874275915711 40
4.419582979109192 1.117505703887221 0.886116974528674 28
nan nan nan 0
nan nan nan 0
3.240271702638671 0.783305616936230 0.647987348298746 2
3.265904839104776 0.777445946795978 0.652566764187783 1
nan nan nan 0
nan nan nan 0
nan nan nan 0
3.314762283563235 0.740329737436316 0.660199124002845 1
3.317326321942774 0.728754547437957 0.660199124002845 1
nan nan nan 0
4.163478713471196 0.884215253072966 0.827347803952698 1
4.124259449575432 0.860851481583176 0.818952208156130 1
nan nan nan 0
3.329539597631018 0.670748227334936 0.660199124002845 1
4.102233068395889 0.811520001064276 0.812846320304081 1
4.178276279471547 0.811417860106652 0.827347803952698 1
4.107525011774205 0.784295312505070 0.812846320304081 1
3.338362066545979 0.625360559447697 0.660199124002845 1
nan nan nan 0
nan nan nan 0
nan nan nan 0
4.120711546524931 0.711770475577782 0.812846320304081 1
nan nan nan 0
nan nan nan 0
nan nan nan 0
4.130247743824659 0.654166977307348 0.812846320304081 1
4.132394330191202 0.640466985387787 0.812846320304081 1
nan nan nan 0
4.136871575082612 0.610880046196979 0.812846320304081 1
4.138978741143089 0.596435947888526 0.812846320304081 1
4.141035475053787 0.581984582196274 0.812846320304081 1
4.181943552240006 0.572855009010297 0.820478680119143 1
3.171993427831362 0.423234285227036 0.622037324927536 1
nan nan nan 0
nan nan nan 0
nan nan nan 0
4.230293197827515 0.504431924002979 0.828111039934204 1
nan nan nan 0
nan nan nan 0
nan nan nan 0
3.182574110109293 0.334502018019378 0.622037324927536 1
nan nan nan 0
nan nan nan 0
nan nan nan 0
nan nan nan 0
3.121382901023128 0.273634580762067 0.609062313241931 1
3.087104922831878 0.259774051932352 0.602193189408375 3
nan nan nan 0
3.102545335502095 0.239272562639948 0.604864515343647 26
3.101403693966090 0.228297073702979 0.604482897352894 20
3.102181704656869 0.217469763645558 0.604482897352894 16
3.100963000891402 0.206509349366114 0.604101279362141 12
3.097746243340859 0.195436478880534 0.603338043380635 7
3.139564916783350 0.187074422341492 0.611352021186450 1
nan nan nan 0
nan nan nan 0
4.702223194404796 0.230799744527795 0.915119941825909 69
4.685349228467470 0.213579903921768 0.911685379909131 60
4.701758359755143 0.197884121090813 0.914738323835156 61
4.702420459521564 0.181470716040511 0.914738323835156 61
4.710844520074438 0.166152735955732 0.916264795798168 61
4.709433537306555 0.149645455332452 0.915883177807415 66
4.709950382964642 0.132383513401835 0.915883177807415 63
4.714309112861056 0.116038530166160 0.916646413788921 66
4.726462341257609 0.099830560687353 0.918936121733440 63
4.724819070375794 0.083296913911935 0.918554503742687 61
4.725081045651569 0.066803710063946 0.918554503742687 68
4.729211733510605 0.050351495052474 0.919317739724193 68
4.735242307133724 0.034711760780551 0.920462593696452 66
4.739261104862656 0.018197545717967 0.921225829677958 66
4.749112024187334 0.001657752894692 0.923133919631724 71
4.741235898894653 -0.014895080871788 0.921607447668711 61
4.745081442504853 -0.031471033327424 0.922370683650218 68
4.746905833215047 -0.048054140354929 0.922752301640971 66
4.752598390523699 -0.064703819372143 0.923897155613230 71
4.762158413561147 -0.081460981024192 0.925805245566996 66
4.757919372923469 -0.098002659461752 0.925042009585489 66
4.759510977867826 -0.114657581865685 0.925423627576242 68
4.764969275464264 -0.131433073777021 0.926568481548502 66
4.778217607776298 -0.148491996161656 0.929239807483773 68
4.787480574456159 -0.165509342040220 0.931147897437539 66
4.779026338178516 -0.181921038625968 0.929621425474526 66
4.776469644613425 -0.196853027088798 0.929239807483773 61
4.789482464642160 -0.214138647364034 0.931911133419045 63
4.792627756077379 -0.231044827555151 0.932674369400551 63
4.809437776239545 -0.248685233152161 0.936108931317329 61
4.796686053996625 -0.266496824472070 0.933819223372810 61
4.799646261876093 -0.283470258627040 0.934582459354316 61
4.810384064394045 -0.300957962454251 0.936872167298835 61
4.815181168715837 -0.318135789011705 0.938017021271094 60
4.818075089574348 -0.333532696771807 0.938780257252600 58
4.814923407925666 -0.350206467160458 0.938398639261847 60
4.821373303107577 -0.369291561466645 0.939925111224860 60
4.820054861539830 -0.386119045159892 0.939925111224860 58
4.824687498293027 -0.401748508919284 0.941069965197119 56
4.831079350929416 -0.419266337399561 0.942596437160131 58
4.823720511286882 -0.435597687669796 0.941451583187872 58
4.829989283381900 -0.453166536628489 0.942978055150885 58
4.836194082265969 -0.470784448465518 0.944504527113897 58
4.836474616044261 -0.487860083578061 0.944886145104650 58
4.846369673609565 -0.506808533983110 0.947175853049169 60
4.844571055940643 -0.523722433491969 0.947175853049169 60
4.844664542227117 -0.540847771894960 0.947557471039921 58
4.856399644954813 -0.559327919812561 0.950228796975193 58
4.856367204628394 -0.576507946838614 0.950610414965946 60
4.866017703152681 -0.594885760765821 0.952900122910465 60
4.856119910524673 -0.610887543569809 0.951373650947452 61
4.855904964781463 -0.628086682758924 0.951755268938206 60
4.867531451216024 -0.645144515919531 0.954426594873477 60
4.882757718131661 -0.664514161126858 0.957861156790255 63
4.884297155023983 -0.682097188828389 0.958624392771761 66
4.885773286953683 -0.699699054083252 0.959387628753267 66
4.883175944925271 -0.717601608623039 0.959387628753267 60
4.896172375991392 -0.736980466932178 0.962440572679292 66
4.901199523634834 -0.756118222479300 0.963967044642304 63
4.908226538656659 -0.774752521516064 0.965875134596070 61
4.901891819195966 -0.789543929146598 0.965111898614564 61
4.902980274934377 -0.807287834649729 0.965875134596070 60
4.913684765927628 -0.826677551940882 0.968546460531342 63
4.926248364806035 -0.846484285444191 0.971599404457366 63
4.936497035998161 -0.867772756821489 0.974270730392638 61
4.925708236583399 -0.883612457894672 0.972744258429625 61
4.926456216979631 -0.901507792816076 0.973507494411132 60
4.936788940493360 -0.921219771677513 0.976178820346403 58
4.941585686064392 -0.938189356512679 0.977705292309415 58
4.953700768441323 -0.958416391137069 0.980758236235440 58
4.938427822009631 -0.975148186659551 0.978468528290922 56
4.948466905106573 -0.995089883133168 0.981139854226193 58
4.946886607266362 -1.012750953801471 0.981521472216947 56
4.952931186717240 -1.032014997900939 0.983429562170712 58
4.959268119722375 -1.049602509529736 0.985337652124477 58
4.961331941719248 -1.068146820077380 0.986482506096737 61
4.967162303794665 -1.087558125986930 0.988390596050502 60
4.969084793385503 -1.106169927856120 0.989535450022761 60
4.974767491746104 -1.125674957572119 0.991443539976527 58
4.982287770615144 -1.145673078480533 0.993733247921045 58
4.978258271460278 -1.163057528505630 0.993733247921045 58
4.977988519416772 -1.181334433621687 0.994496483902552 58
4.983377609156585 -1.201003551100085 0.996404573856317 58
5.000131871132904 -1.223524484806100 1.000602371754601 60
5.007045455428337 -1.244684411307224 1.002892079699120 60
5.004573794965717 -1.262634950516634 1.003273697689873 58
5.009869232077165 -1.281656682296825 1.005181787643638 58
5.022467507058902 -1.303575544392026 1.008616349560416 61
5.027610301412345 -1.322721064426295 1.010524439514181 60
5.038137626667742 -1.344311772816575 1.013577383440206 60
5.029386594866727 -1.361742259784270 1.012814147458700 58
5.032175461612487 -1.381368608060976 1.014340619421712 58
5.038671286343870 -1.402083608652866 1.016630327366231 56
5.041304581684941 -1.421794938330438 1.018156799329243 61
5.047888622206423 -1.441739707295228 1.020446507273762 61
5.046597004632079 -1.460442855136429 1.021209743255268 61
5.044978037680417 -1.480035076960058 1.021972979236774 61
5.051072533743566 -1.500991740986442 1.024262687181293 61
5.055467567640585 -1.520560820450210 1.026170777135058 63
5.059519367972801 -1.541058599844103 1.028078867088823 61
5.061613490619938 -1.561024572955274 1.029605339051836 61
5.063629781972433 -1.581023914883976 1.031131811014848 61
5.076519758896873 -1.605492383543245 1.034947990922379 63
5.085842978441821 -1.627991172546053 1.038000934848404 63
5.096938495230736 -1.651179603166325 1.041435496765182 64
5.094874892878838 -1.670184309402419 1.042198732746688 63
5.098626013266693 -1.690159081160870 1.044106822700453 64
5.107586116124970 -1.712940305301454 1.047159766626478 64
5.119864216506572 -1.737959713095357 1.050975946534009 64
5.126764366855284 -1.760283656676103 1.053647272469280 63
5.119044141065463 -1.776631234364430 1.053265654478527 61
5.116516289527802 -1.795789563693989 1.054028890460033 61
5.125018139008041 -1.818891714822400 1.057081834386058 61
5.129725100796282 -1.840748849126548 1.059371542330577 61
5.142049498898771 -1.864441690736679 1.063187722238108 61
5.139196710489294 -1.883730747585649 1.063950958219614 68
5.128908038026253 -1.900294241624658 1.063187722238108 61
5.098342174477972 -1.909235278320987 1.058226688358318 43
5.076621995550219 -1.922346868636472 1.055173744432293 45
5.051544908032589 -1.933039397851626 1.051357564524762 43
5.001156828348327 -1.932794914036690 1.042198732746688 45
4.963290501656602 -1.938100526451248 1.035711226903885 47
4.267991483303962 -1.683788553604579 0.891841244389970 13
nan nan nan 0
4.241562949887244 -1.707677691809038 0.888788300463946 31
4.186473342787686 -1.702504546789692 0.878484614713612 30
4.165976733804913 -1.711140334156785 0.875431670787588 31
4.132777105383894 -1.714388064000903 0.869707400926291 31
4.114092136043454 -1.723493643971332 0.867036074991020 30
4.095394108923077 -1.732489732491352 0.864364749055748 33
4.056521211628909 -1.733601139919310 0.857495625222192 31
4.023406081277590 -1.736083253569705 0.851771355360896 34
3.997826767122661 -1.740794130495545 0.847573557462612 31
3.977347784272204 -1.748418009589462 0.844520613536587 12
nan nan nan 0
3.203569778493156 -1.435039510199508 0.682332967466524 1
3.166340960983272 -1.431654118404341 0.675463843632969 1
3.122030969125968 -1.424766149424826 0.667068247836401 3
3.108122572405135 -1.431548825318662 0.665160157882635 7
3.106667248867702 -1.444044541666651 0.665923393864141 8
3.080278558706868 -1.444875130787020 0.661343977975104 10
3.043275156812635 -1.440499560993834 0.654474854141549 10
3.019244256928608 -1.440752535006347 0.650277056243265 10
3.000045539578513 -1.444469352007936 0.647224112317240 10
2.987414627595886 -1.452544112950487 0.645697640354228 10
2.941786208257506 -1.443076669871616 0.636920426566907 10
2.910337380274024 -1.440274885131237 0.631196156705610 10
2.896509527535403 -1.446040485581355 0.629288066751845 10
2.869153474350915 -1.443661351094934 0.624327032872055 10
2.862346005607972 -1.452779220469747 0.623945414881302 10
2.831044050536345 -1.449341988549605 0.618221145020005 11
2.792823590092043 -1.442101092518926 0.610970403195697 8
2.766877467285081 -1.440959073514355 0.606390987306659 10
2.758354537498642 -1.448782686356201 0.605627751325153 10
2.734196677267315 -1.448293665366707 0.601429953426869 10
2.708344395247896 -1.446728748788144 0.596850537537832 10
2.685488269799380 -1.447800747147186 0.593034357630301 10
2.671793887165416 -1.452477593688910 0.591126267676536 10
2.646554859446721 -1.449546883200788 0.586546851787499 10
2.639760278917976 -1.457827146315672 0.586165233796746 10
2.603780561880869 -1.449840957675311 0.579296109963190 11
2.590144178902249 -1.454115609863393 0.577388020009425 11
2.576509783823051 -1.458312786739262 0.575479930055659 11
2.552646702255009 -1.456594500519741 0.571282132157375 10
2.535634311045182 -1.458643339441783 0.568610806222103 10
2.513543843309425 -1.457636572622773 0.564794626314573 10
2.486406830414203 -1.453521043002529 0.559833592434782 9
2.471169407426219 -1.456211034386246 0.557543884490264 10
2.454255690770526 -1.457809812041038 0.554872558554992 10
2.444098761677330 -1.463342363339790 0.553727704582733 11
2.417124243311518 -1.458678008856419 0.548766670702943 11
2.400276386980963 -1.459964773727330 0.546095344767671 12
2.376754060456019 -1.457047420231327 0.541897546869387 13
2.358292107446654 -1.457079555080514 0.538844602943362 13
2.344858751728108 -1.460113904961757 0.536936512989597 14
2.319792512964816 -1.455767363955878 0.532357097100560 13
2.303081837546245 -1.456510567551657 0.529685771165288 13
2.284738773255984 -1.456099791653967 0.526632827239264 13
2.279897610072202 -1.463668252323949 0.526632827239264 13
2.261587465574731 -1.463086546088426 0.523579883313239 13
2.236221591533627 -1.458887078691244 0.519000467424202 14
2.229474975356535 -1.465605616552865 0.518618849433449 14
2.214780948575779 -1.466487493119215 0.516329141488930 14
2.194950131952588 -1.464403314830591 0.512894579572152 15
2.193083706273281 -1.474246758788804 0.513657815553659 16
2.166792751516554 -1.467580579147178 0.508696781673868 16
2.155426800840123 -1.470332473683387 0.507170309710856 15
2.127629680370742 -1.462279366274447 0.501827657840313 5
2.109599787553131 -1.460756147040123 0.498774713914288 4
2.112538778396470 -1.473727464520484 0.500682803868054 2
nan nan nan 0
2.845659381377052 -2.014839152018066 0.677753551577487 42
2.805044310730872 -2.000818661988265 0.669739573771672 31
2.801231714007851 -2.012889183872210 0.670502809753178 35
2.781114356275372 -2.013930886084808 0.667449865827154 32
2.755034429027041 -2.009742287328027 0.662870449938117 32
2.738861282004438 -2.011893625727811 0.660580741993598 32
2.727087250116420 -2.017938413292628 0.659435888021339 33
2.710582178980471 -2.020405689212917 0.657146180076820 35
2.697233195616217 -2.025139967211821 0.655619708113808 35
2.677620824406143 -2.025068724508889 0.652566764187783 33
2.661165401704414 -2.027264771778709 0.650277056243265 35
2.644727387870561 -2.029370700560181 0.647987348298746 33
2.632967330409472 -2.034988408942397 0.646842494326487 32
2.624298681526430 -2.042960784133135 0.646460876335734 33
2.600156939646809 -2.038783467483144 0.642263078437450 32
2.583780122385917 -2.040546584673659 0.639973370492931 32
2.575105085408087 -2.048331074127568 0.639591752502178 28
2.558746286792343 -2.049942326951913 0.637302044557660 31
2.556158731729184 -2.062560082994475 0.638446898529919 31
2.529136985994132 -2.055373874837617 0.633485864650129 35
2.515870003217002 -2.059215737339683 0.631959392687116 35
2.505636880682313 -2.065487650392681 0.631196156705610 35
2.495390664022346 -2.071713244244336 0.630432920724104 35
2.482481454404416 -2.074940603305273 0.628906448761092 35
2.461705832208827 -2.072214591792187 0.625471886844314 36
2.440979654085965 -2.069368960513171 0.622037324927536 35
2.430755151422241 -2.075327420008352 0.621274088946030 35
2.424984731801055 -2.085079670555707 0.621655706936783 36
2.414723357761200 -2.090961416428702 0.620892470955277 36
2.385214901271368 -2.080022586203288 0.615168201093981 35
2.370563992343885 -2.081858399192153 0.613260111140215 37
2.358870655242913 -2.086218623197501 0.612115257167956 35
2.353040090798521 -2.095745668972193 0.612496875158709 36
2.341325732570535 -2.100013933333370 0.611352021186450 35
2.322325715715657 -2.097646181492456 0.608299077260425 35
2.306275528314032 -2.097813583663041 0.606009369315906 35
2.296043352896094 -2.103199001451223 0.605246133334400 33
2.284358660125233 -2.107207430744272 0.604101279362141 32
2.276989216430248 -2.115168492705342 0.604101279362141 31
2.258122201286084 -2.112374261945161 0.601048335436116 32
2.242160653704699 -2.112166591200347 0.598758627491598 32
2.236198486640214 -2.121331490972442 0.599140245482351 33
2.221682008596094 -2.122343705690269 0.597232155528585 32
2.219919562052837 -2.135530202085543 0.598758627491598 31
2.196940512747453 -2.128240071834535 0.594560829593314 30
2.184248673110904 -2.130030982094691 0.593034357630301 33
2.169796308706729 -2.130764584459170 0.591126267676536 32
2.162345333152839 -2.138325605667889 0.591126267676536 31
2.156259145035743 -2.147245891984228 0.591507885667289 35
2.134887813575092 -2.140857884687761 0.587691705759758 33
2.121876099493876 -2.142716998832245 0.586165233796746 35
2.113007142289927 -2.148710862839627 0.585783615805993 32
2.098635582296390 -2.149050502670953 0.583875525852227 35
2.087020972844045 -2.152134852410373 0.582730671879968 32
2.071324998139271 -2.150921904549079 0.580440963935449 32
2.058376767204596 -2.152463494514286 0.578914491972437 31
2.042739254243089 -2.151093721254178 0.576624784027918 32
2.035218090834133 -2.158211106723860 0.576624784027918 31
2.022304366846503 -2.159570091313005 0.575098312064906 31
2.006732158965481 -2.157989885337602 0.572808604120388 31
1.989863818368963 -2.154885024396838 0.570137278185116 27
1.983656603581979 -2.163264816931084 0.570518896175869 28
1.972127910426768 -2.165821023302819 0.569374042203610 28
1.964555769328544 -2.172691839461513 0.569374042203610 30
1.953024785193866 -2.175153736649526 0.568229188231350 28
1.936274487270599 -2.171700120721107 0.565557862296079 27
1.926079232949717 -2.175505876454028 0.564794626314573 27
1.918473565949435 -2.182215893728079 0.564794626314573 27
1.914717856446661 -2.193336279474029 0.565939480286832 28
1.898048434227066 -2.189622142658767 0.563268154351560 25
1.882709135949889 -2.187306446769076 0.560978446407042 28
1.875062541497610 -2.193865002259543 0.560978446407042 25
1.868663435442171 -2.201893694786551 0.561360064397795 27
1.859205519029145 -2.204751694404875 0.560596828416289 28
1.843935892684641 -2.202196535938566 0.558307120471770 28
1.832472204496539 -2.204090703337029 0.557162266499511 28
1.824767328115894 -2.210473796956188 0.557162266499511 29
1.813306573238642 -2.212274826601803 0.556017412527252 31
1.807663950241974 -2.221951923971748 0.556780648508758 30
1.787560367235702 -2.212975876495884 0.552964468601227 31
1.776981308215832 -2.216449238973185 0.552201232619721 30
1.767950168963209 -2.218641101198343 0.551437996638214 30
1.757370849408772 -2.222026328742297 0.550674760656708 31
1.749992681946801 -2.227841763031729 0.550674760656708 31
1.732158844656893 -2.221854199248341 0.547621816730684 31
1.715593933163615 -2.217318745483841 0.544950490795412 28
1.712238318985386 -2.229820366794695 0.546476962758424 32
1.704423709914813 -2.233330179687568 0.546095344767671 31
1.690299979304273 -2.231737039093558 0.544187254813906 31
1.672672104655238 -2.225362372263923 0.541134310887881 31
1.660982990101254 -2.226757035020720 0.539989456915622 29
1.654368767492139 -2.231675461971680 0.539989456915622 29
1.645014779165917 -2.236142606475835 0.539607838924869 30
1.639123003038711 -2.245328234872106 0.540371074906375 28
1.621668428826034 -2.238601512790672 0.537318130980350 21
1.619607358876797 -2.249776543781834 0.538844602943362 22
1.597656438994995 -2.236527355710106 0.534265187054325 20
1.602331366324130 -2.259707017807790 0.538462984952609 19
1.587260028880652 -2.255930809608353 0.536173277008091 16
1.570775231682164 -2.248306892305477 0.533120333082066 15
1.565879680845734 -2.258889447276309 0.534265187054325 14
1.556548632647868 -2.260563651482424 0.533501951072819 13
1.547540550033346 -2.264362373043890 0.533120333082066 12
1.539230852522183 -2.270019183420770 0.533120333082066 11
1.523624699186112 -2.263976949274663 0.530449007146795 11
1.514622221636709 -2.267649022374842 0.530067389156041 14
1.509951627865169 -2.277831344559541 0.531212243128301 16
1.504548370680601 -2.286105922722795 0.531975479109807 19
1.492264918048600 -2.284768974136857 0.530449007146795 20
1.478543097169398 -2.281984839709825 0.528540917193029 20
1.465259564303758 -2.278875221351608 0.526632827239264 22
1.454923280171377 -2.278503157506502 0.525487973267004 23
1.448011762804012 -2.285226270584954 0.525869591257758 28
1.441071024325556 -2.291928874902922 0.526251209248511 28
1.426826697779695 -2.286951228088251 0.523961501303992 29
1.415969338059966 -2.289073701049742 0.523198265322486 29
1.406943387160050 -2.292329177626856 0.522816647331733 30
1.397911974445080 -2.295549553335878 0.522435029340980 32
1.390905754264529 -2.302095553192054 0.522816647331733 31
1.378616777538190 -2.298036130164324 0.520908557377967 32
1.364562178384054 -2.292712051334858 0.518618849433449 34
1.362137219487368 -2.307842384162668 0.520908557377967 34
1.352089057783570 -2.309194670107159 0.520145321396461 33
1.344020226751096 -2.313900273286061 0.520145321396461 34
1.332994590013628 -2.313474429901455 0.519000467424202 36
1.321014139290538 -2.311295374420135 0.517473995461190 36
1.314874651719279 -2.319308263731390 0.518237231442696 36
1.306213744121078 -2.321944706121468 0.517855613451943 34
1.301927070393857 -2.333347842205633 0.519382085414955 33
1.287119995393832 -2.325853845041711 0.516710759479683 36
1.278993408802556 -2.330332562377642 0.516710759479683 38
1.270443722239434 -2.335004655168881 0.516710759479683 37
1.264149822719523 -2.342880681925486 0.517473995461190 38
1.252667482863567 -2.340136391403790 0.515947523498177 36
1.242650287389392 -2.341026572499126 0.515184287516671 38
1.232642163080934 -2.341875376601541 0.514421051535165 39
1.223551629702472 -2.344423355585285 0.514039433544412 36
1.217575667145672 -2.351954869087364 0.514802669525918 37
1.209358394665718 -2.356190672399104 0.514802669525918 32
1.196264014159050 -2.351857895084986 0.512894579572152 33
1.182743427831832 -2.345501364099099 0.510604871627634 34
1.177593399028097 -2.354678323022890 0.511749725599893 31
1.172854907841058 -2.365810412980827 0.513276197562906 21
1.166772576239832 -2.375379703767825 0.514421051535165 18
1.153317433562869 -2.368847058033084 0.512131343590646 15
1.147162799807741 -2.376194575573046 0.512894579572152 12
1.143945546369632 -2.390810267845826 0.515184287516671 9
1.138116632020944 -2.400110570279337 0.516329141488930 7
1.134741645756867 -2.414729775026043 0.518618849433449 7
1.125476977227626 -2.416896304287210 0.518237231442696 9
1.116211020068740 -2.419027598497673 0.517855613451943 7
1.107366456239363 -2.420930440061694 0.517473995461190 7
1.098098680586878 -2.422992934545070 0.517092377470436 6
1.098856737279734 -2.448495131902052 0.521671793359473 6
1.081529728422842 -2.432582600973510 0.517473995461190 6
1.077415222157128 -2.445138582660320 0.519382085414955 6
1.065732095918647 -2.441687257481015 0.517855613451943 6
1.064214184104119 -2.461611001644179 0.521290175368720 6
1.060251744055149 -2.476139403389420 0.523579883313239 6
1.042404260474715 -2.458135853153284 0.519000467424202 7
1.036097893987199 -2.467189899198005 0.520145321396461 7
1.026725645067197 -2.468978765073392 0.519763703405708 9
1.018101045682751 -2.472547664535847 0.519763703405708 7
1.007981715006876 -2.472450480196774 0.519000467424202 9
0.994201423196845 -2.463210049460393 0.516329141488930 9
0.990400286054280 -2.477431283082525 0.518618849433449 9
0.981023999648052 -2.479047818026339 0.518237231442696 9
0.974078369345831 -2.488111247457111 0.519382085414955 9
0.968933916114576 -2.500649439499051 0.521290175368720 9
0.956684479474296 -2.494850908588128 0.519382085414955 9
0.950059570004546 -2.503681792643578 0.520526939387214 9
0.942694527772334 -2.510658794096113 0.521290175368720 9
0.933241256653598 -2.512093754566103 0.520908557377967 9
0.929884847423065 -2.530077966325198 0.523961501303992 9
0.918364247920773 -2.525928096414940 0.522435029340980 9
0.904000562360979 -2.512333874719778 0.519000467424202 9
0.898516642838879 -2.524722186180483 0.520908557377967 9
0.892514390065264 -2.537258523840099 0.522816647331733 9
0.883007265850029 -2.538504246317808 0.522435029340980 9
0.873945578234767 -2.539562041372782 0.522053411350227 9
0.863810797721334 -2.538879961479881 0.521290175368720 9
0.854317316667663 -2.540018936404249 0.520908557377967 10
0.846065165385151 -2.544848578793215 0.521290175368720 10
0.833499627335294 -2.536595530636563 0.519000467424202 9
0.814938529431566 -2.509613186029557 0.512894579572152 12
0.794776583436894 -2.476924401706279 0.505643837747844 23
0.786718964103951 -2.481555058761291 0.506025455738597 22
0.769837201232316 -2.458056836916026 0.500682803868054 20
0.765894073809672 -2.475733540609240 0.503735747794078 30
0.752084433899995 -2.461493800052133 0.500301185877300 46
0.735548026514428 -2.437790218682610 0.494958534006757 38
0.726473518872591 -2.438461379747683 0.494576916016004 39
0.720727171172638 -2.450399759953604 0.496485005969770 25
0.722342481589769 -2.484700382672262 0.502972511812572 31
0.706625674956085 -2.462674303138777 0.498011477932782 33
0.695991109996314 -2.459580438367522 0.496866623960523 25
0.710103526365461 -2.543305040072603 0.513276197562906 10
0.712691201395158 -2.587409088541477 0.521671793359473 7
0.705714092439465 -2.597459373098236 0.523198265322486 7
0.695118584889422 -2.594217876092700 0.522053411350227 7
0.685055829689001 -2.592832247422336 0.521290175368720 7
0.675011230003888 -2.591408023592738 0.520526939387214 7
0.672308555110231 -2.618468941323790 0.525487973267004 9
0.664127498453808 -2.624606319157593 0.526251209248511 9
0.651637187073559 -2.613574005497560 0.523579883313239 9
0.639232028310046 -2.602486635668477 0.520908557377967 9
0.632913622914217 -2.616151356686601 0.523198265322486 9
0.623324045607212 -2.614416335300357 0.522435029340980 7
0.615988809764503 -2.624221433377179 0.523961501303992 9
0.602860152442752 -2.607121876941329 0.520145321396461 7
0.594191550246692 -2.611124682390256 0.520526939387214 7
0.587188939188374 -2.624780353280564 0.522816647331733 9
0.577601253855994 -2.624896651615349 0.522435029340980 9
0.568893607033583 -2.626797613824447 0.522435029340980 9
0.553179244898199 -2.598044060570021 0.516329141488930 9
0.536868334392509 -2.565369930816450 0.509460017655375 12
0.526328497864988 -2.559536252037773 0.507933545692362 13
0.526720203997999 -2.607543153978909 0.517092377470436 9
0.520671000185695 -2.624771714682060 0.520145321396461 7
0.513090927530318 -2.632264852394251 0.521290175368720 7
0.504268369455839 -2.635968124158458 0.521671793359473 9
0.494799430665716 -2.633766845843286 0.520908557377967 10
0.485602854210448 -2.635477972367265 0.520908557377967 7
0.481984540891421 -2.668068716667654 0.527014445230017 7
0.471641510892761 -2.663935332960092 0.525869591257758 7
0.459991162354148 -2.652024831278852 0.523198265322486 7
0.454018673764977 -2.672969662826645 0.527014445230017 7
0.442109482102435 -2.659044856896247 0.523961501303992 6
0.434716431980888 -2.672198587030965 0.526251209248511 7
0.423535223916270 -2.662066539223515 0.523961501303992 7
0.413636888234857 -2.659648867774640 0.523198265322486 7
0.406414978440113 -2.674663350459254 0.525869591257758 7
0.397364338991873 -2.678007701046066 0.526251209248511 7
0.389326698136675 -2.685139496305030 0.527396063220770 7
0.375827509993698 -2.657323507355672 0.521671793359473 7
0.360650317266064 -2.615832351981154 0.513276197562906 7
0.344983384929752 -2.568430797299540 0.503735747794078 13
nan nan nan 0
0.326796333297508 -2.568829067211994 0.503354129803325 31
0.313972080778692 -2.538779572623008 0.497248241951276 33
0.305108173445213 -2.539860072597168 0.497248241951276 34
0.297377311889584 -2.550659853977482 0.499156331905041 37
0.288913124475851 -2.555584009996488 0.499919567886547 25
0.279990711377010 -2.556576935510982 0.499919567886547 31
0.270651047158063 -2.553634070690503 0.499156331905041 28
0.261735551876445 -2.554563261538660 0.499156331905041 16
0.263447546106052 -2.662915739387950 0.520145321396461 7
0.256849794154541 -2.697088439135200 0.526632827239264 7
0.248330132433695 -2.707743829127530 0.528540917193029 7
0.239003933774033 -2.704641166375963 0.527777681211523 7
0.229229542000097 -2.701546518495161 0.527014445230017 7
0.221071256855205 -2.717984558886558 0.530067389156041 7
0.211277719121114 -2.714825010720796 0.529304153174535 7
0.201945417996191 -2.717503823727830 0.529685771165288 7
0.191210400460476 -2.700567023334215 0.526251209248511 7
0.183046929237754 -2.712939055811866 0.528540917193029 9
0.173951866154589 -2.719439231181012 0.529685771165288 9
0.164813649166631 -2.725908895848220 0.530830625137548 7
0.155744025170366 -2.734307905081357 0.532357097100560 9
0.145674551388282 -2.725032619235007 0.530449007146795 9
0.136063566988603 -2.723563707478061 0.530067389156041 9
0.126080293068364 -2.724044111730406 0.530067389156041 10
0.116151215068607 -2.714660319433032 0.528159299202276 7
0.106451663878578 -2.697375019039463 0.524724737285498 7
0.096682563340429 -2.687920243463100 0.522816647331733 7
0.086640054650668 -2.682369855359853 0.521671793359473 7
0.078293846027130 -2.717979869779582 0.528540917193029 9
0.069530378767474 -2.728037642197306 0.530449007146795 9
0.060093668185369 -2.732189287694875 0.531212243128301 7
0.050703116388214 -2.714707334723858 0.527777681211523 6
0.041286329736323 -2.718793838787644 0.528540917193029 6
0.031933459821610 -2.730700111978594 0.530830625137548 5
0.022369134085250 -2.726868567568590 0.530067389156041 5
0.012924462852343 -2.742635897948258 0.533120333082066 4
0.003336406830898 -2.730884786256194 0.530830625137548 4
-0.006182816902484 -2.724990047064427 0.529685771165288 3
-0.015785229366044 -2.740657637862986 0.532738715091313 3
-0.025460775609099 -2.752364862340960 0.535028423035832 3
-0.035018140879741 -2.748333029258124 0.534265187054325 3
-0.044547669543738 -2.744268057850712 0.533501951072819 3
-0.054126681323979 -2.744095838444851 0.533501951072819 4
-0.063613896200584 -2.739964732191464 0.532738715091313 5
-0.073230190019358 -2.741688539882712 0.533120333082066 6
-0.083096372259606 -2.751228012990033 0.535028423035832 9
-0.092567205100789 -2.746996909798341 0.534265187054325 11
-0.100329279306610 -2.723149466984662 0.529685771165288 14
-0.108884658100414 -2.699242754344049 0.525106355276251 13
-0.117654978197612 -2.673327916798591 0.520145321396461 11
-0.126147418926078 -2.655251554888203 0.516710759479683 19
-0.134154504604241 -2.639132853309025 0.513657815553659 27
-0.143046442272724 -2.632767399441921 0.512512961581399 34
-0.152689063673375 -2.640091951163044 0.514039433544412 34
-0.162384557438670 -2.647381168737090 0.515565905507424 34
-0.172132794049111 -2.654634772313287 0.517092377470436 34
-0.181264276808682 -2.652059059106896 0.516710759479683 36
-0.190379876749332 -2.649451966006973 0.516329141488930 36
-0.200217206139196 -2.656602084238836 0.517855613451943 36
-0.209487820742076 -2.661795140083886 0.519000467424202 36
-0.219582274117776 -2.670830938068464 0.520908557377967 36
-0.228400790699143 -2.664179943515451 0.519763703405708 36
-0.237699122693608 -2.663366444876235 0.519763703405708 36
-0.246994558399276 -2.662520493957395 0.519763703405708 36
-0.257604171699484 -2.675321612599224 0.522435029340980 38
-0.267136207392316 -2.676359654450959 0.522816647331733 38
-0.277284050109507 -2.683222288369550 0.524343119294745 38
-0.285605437467967 -2.672477347744265 0.522435029340980 38
-0.295578693394307 -2.677318311632185 0.523579883313239 38
-0.305144724285036 -2.678220872592900 0.523961501303992 38
-0.315407818054546 -2.684938788550273 0.525487973267004 38
-0.324309661711177 -2.683878095829339 0.525487973267004 38
-0.332464563228109 -2.672988481080163 0.523579883313239 36
-0.342291249302133 -2.675706447631997 0.524343119294745 34
-0.352396871620503 -2.680334836326204 0.525487973267004 31
-0.363064386271478 -2.688816402047665 0.527396063220770 29
-0.371369898335941 -2.679754013263224 0.525869591257758 22
-0.382379437285776 -2.690103663542946 0.528159299202276 21
-0.393182666230515 -2.698466222491800 0.530067389156041 21
-0.402599675765636 -2.697077318881812 0.530067389156041 18
-0.414088153010844 -2.709240569417734 0.532738715091313 16
-0.422632452742119 -2.701959617890267 0.531593861119054 16
-0.433302141771186 -2.708222288585442 0.533120333082066 16
-0.444654549434960 -2.718318307269166 0.535410041026585 16
-0.454140542093580 -2.716749612311532 0.535410041026585 18
-0.465127783338612 -2.726840502325525 0.537699748971103 19
-0.473295937535642 -2.717463738954885 0.536173277008091 21
-0.483466002270709 -2.719660972560174 0.536936512989597 22
-0.490503925625047 -2.704434619074425 0.534265187054325 22
-0.504583486756221 -2.727802519895831 0.539226220934116 24
-0.511919196097081 -2.714449100220133 0.536936512989597 25
-0.520650133922716 -2.708789702998124 0.536173277008091 25
-0.527838620052232 -2.695395838437334 0.533883569063572 28
-0.537244091576758 -2.693536916537400 0.533883569063572 25
-0.549378185728311 -2.705113020503700 0.536554894998844 28
-0.559214897274339 -2.705101454601107 0.536936512989597 31
-0.568249895900996 -2.701211746690972 0.536554894998844 32
-0.579318880351174 -2.706890850661904 0.538081366961856 32
-0.587929036848229 -2.701015489357752 0.537318130980350 29
-0.600274073296951 -2.714386512332394 0.540371074906375 33
-0.610606615649595 -2.716105524184369 0.541134310887881 34
-0.619610188822872 -2.714065745608750 0.541134310887881 34
-0.629967549620385 -2.715711312920102 0.541897546869387 34
-0.641719480603665 -2.721027461083369 0.543424018832400 34
-0.652128355411299 -2.722589363045162 0.544187254813906 34
-0.664862335838535 -2.735673635371443 0.547240198739930 33
-0.671585779327790 -2.721899613061900 0.544950490795412 36
-0.683943935127254 -2.728941623828484 0.546858580749177 34
-0.695401255115435 -2.734148300357120 0.548385052712190 34
-0.705922105835686 -2.735506194019179 0.549148288693696 34
-0.717455291741646 -2.740622413308259 0.550674760656708 33
-0.726009831031575 -2.734306317930546 0.549911524675202 34
-0.736570806308007 -2.735546884129470 0.550674760656708 34
-0.749217509404515 -2.744322761641980 0.552964468601227 34
-0.759839751578280 -2.745475037420482 0.553727704582733 33
-0.771109191749672 -2.752526744325832 0.555635794536498 31
-0.780712605264117 -2.749818301599491 0.555635794536498 31
-0.790721916928190 -2.744913778157324 0.555254176545745 32
-0.803048803880650 -2.751560071554860 0.557162266499511 31
-0.814468864902444 -2.758438109626484 0.559070356453276 29
-0.825217689929307 -2.759340158988976 0.559833592434782 29
-0.836551805634728 -2.762079698190481 0.560978446407042 30
-0.846188166482302 -2.759142759911502 0.560978446407042 30
-0.858042787873196 -2.761647328923351 0.562123300379301 29
-0.868855617852299 -2.762380977075797 0.562886536360807 29
-0.880504268316171 -2.768992463616177 0.564794626314573 28
-0.892570341421597 -2.773377471470518 0.566321098277585 30
-0.901637815229990 -2.768378181318435 0.565939480286832 28
-0.912524754929292 -2.768943228564884 0.566702716268338 29
-0.925773933883147 -2.774891777059057 0.568610806222103 31
-0.937337939043424 -2.777223807277028 0.569755660194363 28
-0.947026548673198 -2.773934967475737 0.569755660194363 29
-0.956062826304317 -2.768756593170249 0.569374042203610 27
-0.971708528225628 -2.784106949355532 0.573190222111141 33
-0.985341411652683 -2.791806073599209 0.575479930055659 33
-0.997547845588161 -2.793722633728549 0.576624784027918 32
-1.005960399203292 -2.786530307159128 0.575861548046412 31
-1.017213616568724 -2.788712260219158 0.577006402018671 35
-1.030337813451977 -2.794354666314800 0.578914491972437 35
-1.044199374804317 -2.801778960527966 0.581204199916955 33
-1.059509346533401 -2.812814877391829 0.584257143842980 33
-1.067924555060046 -2.805429736098973 0.583493907861474 33
-1.079120519867051 -2.805349620541139 0.584257143842980 35
-1.095526654163633 -2.820055871061788 0.588073323750511 33
-1.106798417713441 -2.819869636786422 0.588836559732017 33
-1.120976923500891 -2.826939064189620 0.591126267676536 31
-1.130107909102102 -2.821186429970997 0.590744649685783 32
-1.138476000431957 -2.813584604721166 0.589981413704277 32
-1.156460549044291 -2.829584079507717 0.594179211602560 31
-1.169326948650397 -2.832788948320652 0.595705683565573 31
-1.182229777013428 -2.835938382043139 0.597232155528585 30
-1.192121846791823 -2.831794352491779 0.597232155528585 30
-1.201999390941724 -2.827615818419893 0.597232155528585 22
-1.219605818112263 -2.841443743398097 0.601048335436116 20
-1.231858814389915 -2.842573345410817 0.602193189408375 18
-1.245500734075860 -2.849482821184284 0.604482897352894 18
-1.253061970602153 -2.839729371478958 0.603338043380635 18
-1.268256603473743 -2.845877055420716 0.605627751325153 18
-1.285431515551438 -2.857546660584132 0.609062313241931 22
-1.300579801799837 -2.865782638974790 0.611733639177203 26
-1.308122596578492 -2.855870551636173 0.610588785204943 26
-1.318581099005096 -2.851056860311359 0.610588785204943 26
-1.331016096006057 -2.851773852687448 0.611733639177203 23
-1.355183597882207 -2.877304299493050 0.618221145020005 28
-1.361005369051554 -2.863690381931637 0.616313055066240 28
-1.380331256556496 -2.878394674732151 0.620510852964524 26
-1.386949974361498 -2.866489857769397 0.618984381001511 27
-1.401972897186692 -2.874470416891933 0.621655706936783 28
-1.419799224758305 -2.885413023669281 0.625090268853561 27
-1.432984972232898 -2.885464891537239 0.626235122825820 28
-1.451842107658645 -2.897998248852700 0.630051302733351 28
-1.465491136764350 -2.899921592487412 0.631577774696363 30
-1.472930011532082 -2.889541055876414 0.630432920724104 26
-1.488280152029607 -2.897123608328888 0.633104246659376 23
nan nan nan 0
-1.160608722209922 -2.220039727823923 0.486944556200942 11
-1.161941586944036 -2.203818319866234 0.484273230265671 13
-1.158947244828282 -2.178745310529373 0.479693814376634 22
-1.169329542484974 -2.179876738738304 0.480838668348893 21
-1.172816759655693 -2.169079220929117 0.479312196385881 21
-1.174742350623918 -2.154629888210920 0.477022488441362 20
-1.169589340304152 -2.128354941771723 0.472061454561572 19
-1.179866074651978 -2.129411147582617 0.473206308533831 21
-1.173295942639323 -2.099365898195137 0.467482038672535 20
-1.190254638442638 -2.112361684188823 0.471298218580066 21
-1.187193557826700 -2.091538189891199 0.467482038672535 19
-1.191561881112598 -2.082269414279821 0.466337184700276 20
-1.182503159359032 -2.048981344707800 0.459849678857473 21
-1.199520834234513 -2.061810791428993 0.463665858765004 23
-1.190465340207360 -2.030722813872713 0.457559970912954 21
-1.199544208650624 -2.029935351067794 0.458323206894461 20
-1.206976236536806 -2.025525167075795 0.458323206894461 23
-1.195843859088182 -1.991005443379983 0.451454083060905 21
-1.205488993533061 -1.992067892584762 0.452598937033164 23
-1.210390685030207 -1.984495625807037 0.451835701051658 23
-1.214226091792718 -1.975240936789393 0.450690847079399 21
-1.215943743043785 -1.962645880096403 0.448782757125633 23
-1.218628107418978 -1.951728298506473 0.447256285162621 23
-1.223342302843173 -1.944139286961537 0.446493049181115 24
-1.228018391158910 -1.936541185877678 0.445729813199609 25
-1.228427699711130 -1.922316898857671 0.443440105255090 24
-1.230878614312321 -1.911414705797560 0.441913633292078 23
-1.233268437212202 -1.900518905434172 0.440387161329065 27
-1.232789845190404 -1.886773918341410 0.438097453384547 28
-1.240447993863727 -1.884098956659472 0.438479071375300 25
-1.244088453843816 -1.874632417649117 0.437334217403041 27
-1.240802903863277 -1.855590268009983 0.433899655486263 29
-1.241787635543644 -1.843106821516243 0.431991565532497 27
-1.248213713583350 -1.838760944911340 0.431991565532497 28
-1.251768662518024 -1.831588748417750 0.431228329550991 28
-1.255927652093558 -1.823974105058780 0.430465093569485 28
-1.252215420644115 -1.805061069697502 0.427030531652707 31
-1.249511249958978 -1.787805537895947 0.423977587726683 31
-1.259135091981991 -1.788248788536828 0.425122441698942 32
-1.261961936073404 -1.779038807054902 0.423977587726683 31
-1.263598404206673 -1.768233617957870 0.422451115763670 31
-1.262880808869230 -1.754252106730736 0.420161407819152 31
-1.264386255704008 -1.743475892253037 0.418634935856139 30
-1.275096923940083 -1.745392857192319 0.420161407819152 32
-1.272734206794563 -1.730084873751460 0.417490081883880 31
-1.278765576075251 -1.725631662022207 0.417490081883880 29
-1.275684435991896 -1.708348640778380 0.414437137957855 31
-1.276919324685703 -1.697609442761175 0.412910665994843 30
-1.280171092320206 -1.690235625680956 0.412147430013337 31
-1.288444915192852 -1.688878468813366 0.412910665994843 30
-1.287447236179544 -1.674805673164349 0.410620958050324 31
-1.288477802409594 -1.664092141124013 0.409094486087312 31
-1.286746570316548 -1.650520262298768 0.406804778142794 31
-1.292500121905553 -1.646018623027796 0.406804778142794 30
-1.300673643221460 -1.644576659110724 0.407568014124300 31
-1.306406362915091 -1.640026441493471 0.407568014124300 30
-1.304751686007448 -1.626268284263322 0.405278306179781 31
-1.306718719953930 -1.617122858575931 0.404133452207522 32
-1.307118209393613 -1.606689019732827 0.402606980244510 33
-1.312718637282729 -1.602116537206008 0.402606980244510 33
-1.320802222849061 -1.600553015922546 0.403370216226016 33
-1.316342313157411 -1.583853843032776 0.400317272299991 33
-1.314302271822898 -1.570216417024869 0.398027564355472 34
-1.322306072126630 -1.568621225530127 0.398790800336979 34
-1.326502929410700 -1.562499312539704 0.398409182346226 34
-1.325569922301414 -1.550398421316729 0.396501092392460 33
-1.315601576598823 -1.527908993080883 0.391921676503423 34
-1.313209761768149 -1.514407821781754 0.389631968558905 33
-1.320542632029958 -1.513233207824638 0.390395204540411 33
-1.325816756470798 -1.508614434682735 0.390395204540411 34
-1.325870132992832 -1.498096625475547 0.388868732577398 34
-1.327172571795112 -1.489062509982081 0.387723878605139 34
-1.320559862553153 -1.471271344957412 0.384289316688361 33
-1.327003984860219 -1.468109224880150 0.384670934679114 34
-1.330799009668899 -1.462016318973038 0.384289316688361 33
-1.338547507388969 -1.460256519295564 0.385052552669867 34
-1.335646688584851 -1.446919668803380 0.382762844725349 35
-1.338015885145896 -1.439372707125155 0.381999608743843 35
-1.337415899303987 -1.429193795283573 0.380473136780830 34
-1.343743004529070 -1.425945438488817 0.380854754771583 36
-1.346009466196330 -1.418398023917731 0.380091518790077 34
-1.344170509362794 -1.406594090671853 0.378183428836312 35
-1.343626953199810 -1.396234990062182 0.376656956873299 34
-1.345760029334878 -1.388716621214966 0.375893720891793 34
-1.353341689861494 -1.386820755296726 0.376656956873299 35
-1.358174352672931 -1.382088262225105 0.376656956873299 35
-1.354465859945886 -1.369202467559326 0.374367248928781 35
-1.356465891191348 -1.361684371484139 0.373604012947275 35
-1.363991611394956 -1.359713222328035 0.374367248928781 35
-1.363148629855737 -1.349418974208525 0.372840776965769 35
-1.370885925753169 -1.347165847281458 0.373604012947275 35
-1.365744452024739 -1.332774186976061 0.370932687012003 35
-1.371566207282478 -1.329604387004299 0.371314305002756 36
