# This PCD file was generated using the MATLABÂ® pcwrite function
# from Computer Vision ToolboxÂ®.
# .PCD v.7 - Point Cloud Data file format
VERSION .7
FIELDS x y z intensity
SIZE 8 8 8 1
TYPE F F F U
COUNT 1 1 1 1
WIDTH 905
HEIGHT 1
VIEWPOINT 0 0 0 1 0 0 0
POINTS 905
DATA ascii
-1.639512869929867 -0.983172446267377 0.033369001108086 47
-1.640875307479212 -0.976993891142203 0.033334096295212 46
-1.645997410427515 -0.972277241650222 0.033369001108086 47
-1.635578909709139 -0.958437633717189 0.033089762605090 47
-1.637185704103724 -0.951717577149194 0.033054857792215 46
-1.645694774984093 -0.948993756754765 0.033159572230839 49
-1.645525781868936 -0.941257652726058 0.033089762605090 43
-1.648801359120337 -0.935507961363061 0.033089762605090 47
-1.636372762264144 -0.920920160328910 0.032775619289218 46
-1.637990853280791 -0.913942016861051 0.032740714476344 47
-1.642920776463771 -0.909187044036533 0.032775619289218 46
-1.645926716014593 -0.903733923392073 0.032775619289218 46
-1.647315109087822 -0.897026742626192 0.032740714476344 47
-1.637965171856523 -0.884905690466972 0.032496380786222 44
-1.637518753721717 -0.877294049160515 0.032426571160473 44
-1.637039197457733 -0.869696329743852 0.032356761534724 44
-1.650680338421549 -0.869568780252932 0.032566190411971 41
-1.653705643405473 -0.863801532882955 0.032566190411971 44
-1.638953983947367 -0.848827364218518 0.032217142283225 44
-1.645464720877675 -0.844928047281769 0.032286951908975 44
-1.648404045427508 -0.839179155934330 0.032286951908975 44
-1.647607686143668 -0.831905624637441 0.032217142283225 44
-1.650501540899790 -0.826149332282319 0.032217142283225 46
-1.644418755645321 -0.815938862108905 0.032042618218853 47
-1.645462497937710 -0.809311234422896 0.032007713405978 46
-1.651872431184756 -0.805315157939991 0.032077523031727 44
-1.651072411566907 -0.797804110070360 0.032007713405978 46
-1.653847208714651 -0.792035931324632 0.032007713405978 46
-1.652988764061410 -0.784543253230092 0.031937903780229 46
-1.653907733444721 -0.777917352877949 0.031902998967354 47
-1.652988121630631 -0.770449815240668 0.031833189341605 49
-1.662795050354849 -0.768319178483841 0.031972808593103 47
-1.661830463954161 -0.760845390162014 0.031902998967354 47
-1.657191825878026 -0.751735551874514 0.031763379715856 47
-1.656157851682899 -0.744306850649669 0.031693570090107 47
-1.651438627002138 -0.735267848767896 0.031553950838609 50
-1.664972973410482 -0.734340578697435 0.031763379715856 53
-1.662028817827165 -0.726122536232625 0.031658665277232 52
-1.653541954671060 -0.715551500363509 0.031449236399985 49
-1.656029621585023 -0.709775202414696 0.031449236399985 50
-1.651134193051821 -0.700864883133066 0.031309617148487 76
-1.660944390752395 -0.698196731844265 0.031449236399985 33
nan nan nan 0
-1.665538443244396 -0.687165656595914 0.031449236399985 1
nan nan nan 0
nan nan nan 0
nan nan nan 0
-1.675086261200257 -0.663551778739235 0.031449236399985 1
nan nan nan 0
-3.171067762307654 -1.230612889347778 0.059373086699639 1
-5.568519342552316 -2.138669478238883 0.104121056804833 6
-5.568104334073056 -2.117348810546148 0.103981437553335 14
-5.581076102588781 -2.100012288077367 0.104086151991959 4
-3.344935148938942 -1.245964255117560 0.062305090981102 5
-3.341758643844352 -1.231514766625312 0.062165471729604 6
-3.350220634124438 -1.220042815823063 0.062235281355353 5
-5.585747994868506 -2.012094348107117 0.103632389424589 12
-5.588274647840157 -1.993192728356289 0.103562579798840 18
-5.580111663518648 -1.968352197670407 0.103283341295844 18
-5.577847377429971 -1.944595383596992 0.103108817231471 7
-3.350004571234822 -1.154807250531123 0.061851328413733 5
-3.355907976520688 -1.143751610823716 0.061886233226607 6
-3.357984943996428 -1.131391854781872 0.061851328413733 10
-3.350530325343091 -1.115872221707243 0.061641899536485 25
-3.344907850721011 -1.101043701193335 0.061467375472113 46
-3.350632439665517 -1.089979689618506 0.061502280284987 41
-3.352513010353631 -1.077665197156431 0.061467375472113 43
-3.346724940210212 -1.062929612411499 0.061292851407740 42
-3.342782943044942 -1.048846260366427 0.061153232156241 42
-3.342241784475521 -1.037154120465152 0.061083422530492 46
-3.342017946732209 -1.024309222237182 0.061013612904743 46
-3.349400979284904 -1.013795785874694 0.061083422530492 48
-3.345255565554007 -0.999807508459420 0.060943803278994 46
-3.344889282402088 -0.986992424169683 0.060873993653245 48
-3.340634531082486 -0.973073617721357 0.060734374401747 48
-3.345932684904653 -0.961959231355713 0.060769279214621 48
-3.351193926990269 -0.950819706836312 0.060804184027496 46
-3.348551847572083 -0.938083204472409 0.060699469588872 48
-3.340241370577393 -0.923192580807475 0.060490040711625 49
-3.343602604780978 -0.910943783269069 0.060490040711625 49
-3.350624412869984 -0.900304697536780 0.060559850337374 49
-3.353591507964195 -0.889188676399758 0.060559850337374 49
-3.352805558541627 -0.876465539303785 0.060490040711625 49
-3.346162384951142 -0.862261753755587 0.060315516647252 52
-3.347213687613555 -0.850083982491931 0.060280611834377 49
-3.350160642098866 -0.838394847293679 0.060280611834377 50
-3.356949887429000 -0.827652874048057 0.060350421460126 49
-3.355932053708631 -0.814986072720170 0.060280611834377 50
-3.345142488522084 -0.800010860420573 0.060036278144255 52
-3.337907775477316 -0.787202802844704 0.059861754079882 50
-3.350374751866686 -0.777807603048999 0.060036278144255 52
-3.357102128745206 -0.766412783940475 0.060106087770004 52
-3.359756955999113 -0.754689641394767 0.060106087770004 52
-3.346750075195460 -0.739505701320799 0.059826849267008 52
-3.345402861358791 -0.726969594567562 0.059757039641259 52
-3.355742320635476 -0.716958762935158 0.059896658892757 52
-3.362138544028448 -0.706062627117231 0.059966468518506 53
-3.360665819309200 -0.693513980522604 0.059896658892757 53
-3.351307187951264 -0.679395000393194 0.059687230015510 52
-3.353425028757985 -0.668863222993003 0.059687230015510 55
-3.355739366901067 -0.657153510226877 0.059687230015510 52
-3.358237911425558 -0.644263583354811 0.059687230015510 55
-3.360466351479995 -0.632537220362413 0.059687230015510 55
-3.350747038442143 -0.619209718546925 0.059477801138262 55
-3.352888069824894 -0.607509656217623 0.059477801138262 55
-3.360999035759465 -0.596264543186563 0.059582515576886 56
-3.367000227314970 -0.585213695464200 0.059652325202635 56
-3.366951070124872 -0.573709207326370 0.059617420389760 53
-3.355126073181414 -0.559649774085566 0.059373086699639 59
-3.353112015357492 -0.547290538739270 0.059303277073889 59
-3.366850140532426 -0.537474063585543 0.059512705951137 56
-3.356759596706427 -0.524454126923989 0.059303277073889 56
-3.370430585512207 -0.514544367449704 0.059512705951137 56
-3.356296088190840 -0.501002958802578 0.059233467448140 56
-3.350109265129673 -0.488130954557927 0.059093848196642 56
-3.355835540432308 -0.476411048533175 0.059163657822391 56
-3.361439706488197 -0.465242405610902 0.059233467448140 56
-3.370970258274245 -0.454574916164795 0.059373086699639 56
-3.356675054073533 -0.440722700193391 0.059093848196642 56
-3.354225862741565 -0.428496236373657 0.059024038570893 56
-3.363638949675359 -0.417771083034627 0.059163657822391 59
-3.368976342441062 -0.407094338460408 0.059233467448140 60
-3.370376841912964 -0.395331936264790 0.059233467448140 56
-3.357828110634813 -0.381982540869503 0.058989133758018 55
-3.361128678902927 -0.370478294542406 0.059024038570893 56
-3.366315494580565 -0.359755344716542 0.059093848196642 59
-3.375507176890238 -0.348824734066509 0.059233467448140 59
-3.368745005551593 -0.336245453019831 0.059093848196642 59
-3.353974284155371 -0.322950991500343 0.058814609693645 60
-3.363045744287719 -0.311980321042445 0.058954228945144 60
-3.362122491284283 -0.300061438449138 0.058919324132269 55
-3.367134192160198 -0.288665228394714 0.058989133758018 45
-3.328261884349787 -0.273632936854318 0.058291037500527 12
nan nan nan 0
-3.162547941018245 -0.238348270818799 0.055359033219063 49
-3.177282637555577 -0.228865258779571 0.055603366909185 61
-3.182052203412769 -0.218046490846453 0.055673176534934 69
-3.170821048983567 -0.206159278274149 0.055463747657687 64
-3.163537670151980 -0.194598690502996 0.055324128406189 69
-3.160172950494146 -0.183874639962209 0.055254318780440 69
-3.168782389032994 -0.173279204129240 0.055393938031938 61
-3.173418605975718 -0.161313743812770 0.055463747657687 61
-3.173962362471732 -0.150235462886190 0.055463747657687 69
-3.166427692744750 -0.139910354996522 0.055324128406189 66
-3.166896780062337 -0.128856607307879 0.055324128406189 69
-3.171344445069396 -0.117396432470489 0.055393938031938 64
-3.171734914176917 -0.106325659275906 0.055393938031938 64
-3.180048387033744 -0.096603727358379 0.055533557283436 69
-3.172370330575729 -0.085287732483350 0.055393938031938 66
-3.172648713154154 -0.074213573897258 0.055393938031938 69
-3.180885636340702 -0.063297650326481 0.055533557283436 69
-3.185076890367057 -0.052815414777183 0.055603366909185 69
-3.189240894134129 -0.041749450260497 0.055673176534934 66
-3.181368783931709 -0.030539886056255 0.055533557283436 64
-3.173457373718952 -0.019385789076686 0.055393938031938 64
-3.181501361852635 -0.009439732267307 0.055533557283436 66
-3.189513710337192 0.001670025626099 0.055673176534934 66
-3.189488449250871 0.012803495998600 0.055673176534934 64
-3.185425047103548 0.023906795555303 0.055603366909185 61
-3.181323041099758 0.034981883643373 0.055533557283436 61
-3.165185665229442 0.045854823979187 0.055254318780440 43
-3.051051626078154 0.054321653186319 0.053264744446589 16
-2.956879042127427 0.062970392396341 0.051624218241485 14
-2.968648506276004 0.073070645348323 0.051833647118732 17
-2.906409271226955 0.081691024198540 0.050751597919620 17
-2.814166316762698 0.088930391820995 0.049145976527390 22
-2.781863306594710 0.097630929075819 0.048587499521397 27
-2.785520698033617 0.107008911277868 0.048657309147146 22
-2.789126079516108 0.116899018213143 0.048727118772896 19
-2.788701033482202 0.126634172921025 0.048727118772896 16
-2.800225856178210 0.136953892588337 0.048936547650143 16
-2.807718557454161 0.147146294447957 0.049076166901641 16
-2.823160434600002 0.157839172788222 0.049355405404638 15
-2.814607571079348 0.167218501416982 0.049215786153139 16
-2.847934462648415 0.179176849077728 0.049809167972007 22
-2.859296564474614 0.189413031106371 0.050018596849255 22
-2.834679787216080 0.197722962324383 0.049599739094760 19
-2.824036647396304 0.206393222470708 0.049425215030387 19
-2.811335864267218 0.215333380315781 0.049215786153139 22
-2.820533632817608 0.225943850107338 0.049390310217512 21
-2.825705979336293 0.236287877127475 0.049495024656136 24
-2.834781542921432 0.247512706425119 0.049669548720509 24
-2.841866280054355 0.258129992592803 0.049809167972007 21
-2.842985550846894 0.267740034518561 0.049844072784882 11
-3.397304922318962 0.331911416834194 0.059582515576886 2
-3.507601163509569 0.354433706913652 0.061537185097862 3
-3.526231089706254 0.368755198100407 0.061886233226607 6
-3.512860959861448 0.380998488824509 0.061676804349360 6
-3.507535081394552 0.392813226594573 0.061606994723611 5
-5.979554664619251 0.688685469994532 0.105063486752447 4
-5.973142769714352 0.709082350910370 0.104993677126698 9
-5.996178885303640 0.735175906093752 0.105447439694067 3
-3.406478048265809 0.429734236889458 0.059931563705632 1
-3.517993097287012 0.456283179730342 0.061921138039482 5
-3.518361114217720 0.468824614023974 0.061956042852356 6
-3.516870898275341 0.479875539716371 0.061956042852356 6
-3.495370594659310 0.489376117308712 0.061606994723611 2
-3.200609603942423 0.460074523710012 0.056441082418175 3
-3.131720409059826 0.461335279091321 0.055254318780440 1
-3.058907598794835 0.461524154854655 0.053997745516955 1
-3.025657744433793 0.467315159318452 0.053439268510962 3
-2.960802160076415 0.467885610264206 0.052322314498976 4
-2.937435979771680 0.474708617302794 0.051938361557356 17
-2.914058507017947 0.481374241758546 0.051554408615735 19
-2.934050332105829 0.495204054172030 0.051938361557356 17
-2.928362603489282 0.504763425582706 0.051868551931607 17
-2.942338302655497 0.517754691605164 0.052147790434603 17
-2.948478294511695 0.528921330238936 0.052287409686101 17
-2.928910762689765 0.535970637052882 0.051973266370230 14
-2.932823757884567 0.547803513225973 0.052077980808854 17
-2.942680134796789 0.560281760421189 0.052287409686101 17
-2.940905439097222 0.569523682630223 0.052287409686101 17
-2.942823277816527 0.580559968588195 0.052357219311851 17
-2.932833851044142 0.589765143437220 0.052217600060352 17
-2.934675443441688 0.600801188787648 0.052287409686101 17
-2.944413308750872 0.612974998830782 0.052496838563349 16
-2.952037123464300 0.625321156884652 0.052671362627722 16
-2.951680133644061 0.636558275433962 0.052706267440596 16
-2.933813974984287 0.643430623162804 0.052427028937600 17
-2.943375192923961 0.655765108090193 0.052636457814847 17
-2.943018523958813 0.666477077771045 0.052671362627722 16
-2.948469182509089 0.678539961967708 0.052810981879220 16
-2.953871391183783 0.690648997817185 0.052950601130718 17
-2.941714687800657 0.698645390214068 0.052776077066345 21
-2.952865714451470 0.712191623413411 0.053020410756467 47
-2.942718213025021 0.720078565588949 0.052880791504969 19
-2.928542437787013 0.727453721991606 0.052671362627722 13
-2.894960944962896 0.729850241002712 0.052112885621729 11
-2.853649564603277 0.730038822169178 0.051414789364237 11
-2.823985990240826 0.732962248020466 0.050926121983993 11
-2.811741283312085 0.740269701546073 0.050751597919620 14
-2.805276113055984 0.749048253354113 0.050681788293871 24
-2.804574551845741 0.759358545207454 0.050716693106746 34
-2.794327198970147 0.766538625703816 0.050577073855248 32
-2.797414237316025 0.777895199366171 0.050681788293871 30
-2.804305393565452 0.790367569623801 0.050856312358244 32
-2.807297831303188 0.801799139503295 0.050961026796868 32
-2.816007195176165 0.814928868786824 0.051170455674115 30
-2.801631850935738 0.821378077118082 0.050961026796868 32
-2.802581538762251 0.832291158383303 0.051030836422617 32
-2.803489129348729 0.843220864066437 0.051100646048366 32
-2.815832094728508 0.857662941813593 0.051379884551363 35
-2.812821137354157 0.867486804923947 0.051379884551363 32
-2.802140646026043 0.874916130323787 0.051240265299864 34
-2.818136778445732 0.890718609164240 0.051589313428610 30
-2.815167554023475 0.900058990018682 0.051589313428610 32
-2.823424072079936 0.913573970456189 0.051798742305857 32
-2.816417069788650 0.922179487153608 0.051728932680108 27
-2.818875602266530 0.933891648946963 0.051833647118732 30
-2.823347754181272 0.945774940745620 0.051973266370230 30
-2.823816998974520 0.956908080508998 0.052043075995979 30
-2.828026188021790 0.969352797581797 0.052182695247478 30
-2.830293430390374 0.981183532616303 0.052287409686101 32
-2.817415799638298 0.987749188357382 0.052112885621729 30
-2.825259323218645 1.001586807007558 0.052322314498976 30
-2.829275595938024 1.014141680307393 0.052461933750474 30
-2.833238552431435 1.026736763556271 0.052601553001973 30
-2.837147961033417 1.039371837194590 0.052741172253471 30
-2.829752091592642 1.047880159028697 0.052671362627722 30
-2.830192238261121 1.058165517882640 0.052741172253471 30
-2.837704927497025 1.072279337812214 0.052950601130718 30
-2.839359766481603 1.084813924124949 0.053055315569342 29
-2.837421258081849 1.095438739813865 0.053090220382216 27
-2.850346923361136 1.111876967305155 0.053404363698088 14
-6.189629915544174 2.439408068292786 0.116128312433684 2
nan nan nan 0
-3.430615887910602 1.379098744551228 0.064538999005074 3
-3.007053877174950 1.221037959826423 0.056650511295422 3
-2.991672513637605 1.226974317319119 0.056441082418175 4
-2.961506660714539 1.226696223926219 0.055952415037931 6
-2.947982673468041 1.233167865219804 0.055777890973558 15
-2.962299392355566 1.250715026197756 0.056126939102304 6
-2.974471032234180 1.268105864119868 0.056441082418175 6
-3.010661044643753 1.295349839202566 0.057208988301415 4
-3.013457564031471 1.309038061705334 0.057348607552914 4
-3.008869809454083 1.319549016508099 0.057348607552914 4
-2.993274320102152 1.325186763772288 0.057139178675666 4
-2.959650303056165 1.322056242305189 0.056580701669673 4
-2.900328647789970 1.307720826026815 0.055533557283436 4
-2.886187041856002 1.314702908212936 0.055359033219063 12
-2.885214059505511 1.326440151010447 0.055428842844812 27
-2.889636134870792 1.340711480385452 0.055603366909185 27
-2.893993622674143 1.355029792587578 0.055777890973558 36
-2.884297386003031 1.361553923467813 0.055673176534934 51
-2.874111065306815 1.369033867477783 0.055568462096311 42
-2.889140402372076 1.388586714120779 0.055952415037931 51
-2.884275728561247 1.398663236409648 0.055952415037931 48
-2.884764636732368 1.411359128249512 0.056057129476555 40
-2.881613662469548 1.422305306169570 0.056092034289429 49
-2.885581649954561 1.436811962595153 0.056266558353802 46
-2.887696423718077 1.450466031168530 0.056406177605300 45
-2.886438536683947 1.461840975213143 0.056475987231049 45
-2.890222124102257 1.476456160175372 0.056650511295422 45
-2.885050722094983 1.486535923046995 0.056650511295422 43
-2.881618562321582 1.497519690983838 0.056685416108297 45
-2.887000683668125 1.513139130785354 0.056894844985544 40
-6.154111696049251 3.252935611829366 0.121503653616368 9
-6.155644379546763 3.279907879825462 0.121747987306490 10
-6.145919375320726 3.302321601425934 0.121782892119364 11
-6.153694862558916 3.334233765122636 0.122166845060985 9
-3.697495272048493 2.020127701017250 0.073544440726713 4
-6.195073435164253 3.412813967295948 0.123458323137344 3
-6.169137738294014 3.426650037436745 0.123179084634347 5
-3.700564362272146 2.072415619412614 0.074033108106957 2
nan nan nan 0
-3.701646870669681 2.107102971159033 0.074347251422828 4
-3.702941150328203 2.124987845185071 0.074521775487201 4
nan nan nan 0
-3.699132917185056 2.155540514138443 0.074731204364448 1
nan nan nan 0
-3.494718631893665 2.069241420018048 0.070891674948246 2
-3.710700172113488 2.214655425406991 0.075429300621939 5
-3.283131145031389 1.975044624374780 0.066877621467670 4
-3.245781696445813 1.967264142064085 0.066249334835928 10
-3.225243066169063 1.970242398924104 0.065970096332932 11
-3.204723358948078 1.973101341495189 0.065690857829935 10
-3.180824840002843 1.973732450238852 0.065341809701189 10
-3.160352106412733 1.976341424279136 0.065062571198193 10
-3.122982516307806 1.968169816303506 0.064434284566451 10
-3.107653172589995 1.973698670534982 0.064259760502078 10
-3.085586297676934 1.974832691047782 0.063945617186207 11
-3.065230055231144 1.976920661213557 0.063666378683210 11
-3.041543585950044 1.976711291619899 0.063317330554465 11
-3.014894860348163 1.973643524845776 0.062898472799970 12
-2.997971695372241 1.977548936820261 0.062689043922722 21
-3.009369848302288 2.000177720402768 0.063072996864343 22
-3.005692634267103 2.012895619325811 0.063142806490092 36
-3.005278515302973 2.027849200520250 0.063282425741590 42
-3.009757682522791 2.046197215160636 0.063526759431712 38
-2.999297227937673 2.054430664200356 0.063456949805963 46
-3.011857539391308 2.078517270464752 0.063875807560458 42
-3.019726802116861 2.098764801206551 0.064189950876329 36
-3.014020403151180 2.110439806604325 0.064224855689203 38
-3.008269271896210 2.122100532714052 0.064259760502078 36
-3.008993467740751 2.138380352992867 0.064434284566451 32
-3.009640564736005 2.154691015654646 0.064608808630824 40
-3.015075998373252 2.174541391965832 0.064888047133820 41
-3.015556001282835 2.190929680513767 0.065062571198193 33
-3.017571906591939 2.208528776030153 0.065272000075440 43
-3.005015691164838 2.215488641527156 0.065167285636817 28
nan nan nan 0
-2.896604865939316 2.166937294110107 0.063142806490092 6
-3.791343873708484 2.856982531365442 0.082864025764222 4
-3.773383959401197 2.864154315193647 0.082689501699849 7
nan nan nan 0
-6.453008460615260 4.969485513132282 0.142167302838111 23
nan nan nan 0
-3.802360690739788 2.970729754469152 0.084225313466330 7
-3.930257491227668 3.092807672235592 0.087296936999292 1
-3.293489100137693 2.608515961866295 0.073335011849465 1
-3.171810459362833 2.530210796212200 0.070821865322496 1
-3.117314409821952 2.505489470436701 0.069809625749134 11
-3.099223978826855 2.508806597101505 0.069600196871887 8
-3.076498866635039 2.508237262775584 0.069286053556016 6
-3.148088311657143 2.584948861204507 0.071101103825493 1
-3.108674270591464 2.569891767348969 0.070403007568002 3
-3.108905413588040 2.588404337266927 0.070612436445249 3
-3.096786647548499 2.596670983657099 0.070542626819500 3
-3.087703707620520 2.607464966542772 0.070542626819500 2
-3.117725972633835 2.652454643410539 0.071450151954239 3
-3.108448183825457 2.663321378327809 0.071450151954239 3
-3.105188469766120 2.679381173310407 0.071589771205737 2
-3.116948621270257 2.708567147229777 0.072078438585981 3
-3.107949550892025 2.718888428715138 0.072078438585981 3
-3.083435372765970 2.716501646699340 0.071729390457235 6
-3.099843251779233 2.749268490164075 0.072322772276103 18
-3.096193318929889 2.765400537648755 0.072462391527601 18
-3.103875185879824 2.792780541679308 0.072881249282096 20
-3.092625800335727 2.802255354030978 0.072846344469221 18
-3.095135314870308 2.823276471009818 0.073125582972218 26
-3.098515490422957 2.846238282753522 0.073439726288089 32
-3.112048546356920 2.878763295414723 0.073998203294082 21
-3.563467569857231 3.318339197737386 0.084993219349571 60
-3.535817318954249 3.315711259899011 0.084609266407950 57
-3.545160353756034 3.346635983763603 0.085097933788194 56
-3.547361362778353 3.373387344368949 0.085446981916940 58
-3.553489397245071 3.401726056172717 0.085865839671435 59
-3.558869574193586 3.430763516313720 0.086284697425930 59
-3.553213432392248 3.448116752860050 0.086424316677428 61
-3.557710964111546 3.477891165475867 0.086843174431923 57
-3.566112566853633 3.509306243395451 0.087331841812167 58
-3.570885877394636 3.538623724747957 0.087750699566662 57
-3.576120439988523 3.567392987583241 0.088169557321156 56
-3.572110845301148 3.588357460410049 0.088378986198404 56
-3.574252571502452 3.614402010157773 0.088728034327149 56
-3.579956475039701 3.648081141772724 0.089216701707393 56
-3.584589737542636 3.677115429243958 0.089635559461888 59
-3.582859262939171 3.701099678619574 0.089914797964885 58
-3.578882810696617 3.721608718153534 0.090124226842132 58
-3.587311149543881 3.757843978078514 0.090682703848125 58
-3.591341882292237 3.787131366874829 0.091101561602620 34
nan nan nan 0
-6.703376930249979 7.165891263912497 0.171277916775500 1
-6.697376164249554 7.209758162040486 0.171766584155744 3
nan nan nan 0
-6.359315684764959 6.944840645288533 0.164366763826336 4
-6.322927190891875 6.953680930009935 0.164052620510465 10
-6.294471628195799 6.968674439938803 0.163913001258967 10
-6.300817710252413 7.024842267514734 0.164715811955082 6
-6.284238032715347 7.055753114523663 0.164925240832329 5
-6.254271465029174 7.071654554674039 0.164785621580831 6
nan nan nan 0
-3.956796248647763 4.535760698101082 0.105063486752447 4
-6.288482344354098 7.259622580717122 0.167647816236545 3
-6.298311171580896 7.322462271314945 0.168590246184159 4
-6.879204728210083 8.054513871224092 0.184890793796582 1
nan nan nan 0
-6.809925918402604 8.087047009259580 0.184541745667836 1
-6.845790561483954 8.187473648631068 0.186286986311564 1
-3.981472084537725 4.795706305601657 0.108798301730025 1
-3.972339465154450 4.818833104418986 0.109007730607273 1
-3.979140897151133 4.859829386340969 0.109636017239015 1
-3.982335569909643 4.898515752967477 0.110194494245008 1
-3.967724310071511 4.915498914917941 0.110264303870757 2
-4.013070205031811 5.007339152825939 0.112009544514486 1
-4.003915519919444 5.030006700925866 0.112218973391733 2
-4.028490304387322 5.097294282878530 0.113405737029468 1
-4.012249045161895 5.115172030333756 0.113475546655217 3
-6.928406209794375 8.896725804255187 0.196828239799683 1
-4.027812967203137 5.209501621229295 0.114941548795949 3
nan nan nan 0
nan nan nan 0
-7.549136705504737 9.978127715032382 0.218399414156166 1
-4.023805725131330 5.353365928137505 0.116896218316925 1
-4.026620812767995 5.396227276618377 0.117524504948667 4
-4.036327274204651 5.448814230663401 0.118362220457657 4
-4.049269394309779 5.506367202856871 0.119304650405270 4
nan nan nan 0
-7.110349760516254 9.815347852510984 0.211558070832751 1
-7.097670714996346 9.873816979315317 0.212256167090242 1
-7.035285104921786 9.859465590527543 0.211418451581252 1
-7.022778311035925 9.907621640726404 0.211976928587246 1
-6.992754239678098 9.938617142922700 0.212116547838744 3
-4.145958237474009 5.936465259584728 0.126390327418807 2
-4.127489340615480 5.954188070328671 0.126460137044556 1
-4.098745680783291 5.957027565425891 0.126215803354434 10
-4.071160331654839 5.961390437435814 0.126006374477187 29
-6.942109404906674 10.245747109240192 0.216025886880695 3
-6.950938764556392 10.336292465423885 0.217422079395678 3
-6.981026830128338 10.455744048367489 0.219446558542403 1
-7.105755446967203 10.723421847581454 0.224542661222090 1
nan nan nan 0
nan nan nan 0
nan nan nan 0
-1.177423559361945 1.831915090771970 0.038011341220403 1
-4.276541537881546 6.705075575303888 0.138816440802153 3
-4.247763268157549 6.711514109097497 0.138641916737780 11
nan nan nan 0
-4.186112879779786 6.714817814404353 0.138118344544662 53
-4.150143246563265 6.706556754093292 0.137664581977292 48
-4.122522408707661 6.714186166195458 0.137524962725794 47
-4.094898926798091 6.721704549197793 0.137385343474296 48
-4.061066820139524 6.718843749940896 0.137036295345550 47
-4.028333129737780 6.717543840497165 0.136722152029679 53
-3.998725401276199 6.721253115424683 0.136512723152432 55
-3.971173786630368 6.728281885660874 0.136373103900933 51
-3.947663506194488 6.742102878063541 0.136373103900933 43
-3.945197064222714 6.792154153170265 0.137106104971299 50
-3.946422387359258 6.849200552759142 0.137978725293163 45
-3.951266346595828 6.913282271826078 0.138990964866526 43
-3.964586607394278 6.993136926615175 0.140317347755759 41
-3.973000606488188 7.059580468511234 0.141399396954871 40
-3.983421504481916 7.136265016925317 0.142655970218355 42
-3.985606581289027 7.199111726656731 0.143633304978843 16
nan nan nan 0
nan nan nan 0
nan nan nan 0
nan nan nan 0
nan nan nan 0
nan nan nan 0
-5.167194517918373 9.896548949285361 0.194873570278708 1
nan nan nan 0
-4.432903582117215 8.632908422074978 0.169393056880274 5
nan nan nan 0
nan nan nan 0
nan nan nan 0
-3.896114747264477 7.855556202196428 0.153057604454976 1
nan nan nan 0
nan nan nan 0
nan nan nan 0
-3.608643534432179 7.535194806989984 0.145832308189941 5
-3.607184116217487 7.600135224487815 0.146844547763303 6
nan nan nan 0
nan nan nan 0
nan nan nan 0
-4.560835654357300 9.966324365736931 0.191313279365502 1
nan nan nan 0
nan nan nan 0
-3.861082029186883 8.676207247766449 0.165762956341319 1
nan nan nan 0
nan nan nan 0
-4.381282908639579 10.129397515893483 0.192639662254735 3
-4.125413975335022 9.629953449683798 0.182866314649857 3
-4.301294516886887 10.133214863712679 0.192150994874491 3
-4.312391579038112 10.258774178176559 0.194245283646965 1
-4.364161490586899 10.484224604543337 0.198224432314666 1
-4.379355807066384 10.625113607567791 0.200597959590137 1
nan nan nan 0
nan nan nan 0
-4.017587989333904 10.044686559396224 0.188835037651408 4
-4.013418766243683 10.136738692548855 0.190301039792139 9
nan nan nan 0
nan nan nan 0
-0.698711068323042 1.820204563468878 0.034032192552703 1
-0.673890362249956 1.774028899447547 0.033124667417964 2
-0.672539146584132 1.787366759883396 0.033334096295212 3
-0.669086743416997 1.797199610547236 0.033473715546710 10
nan nan nan 0
-0.647998063143265 1.779393685090209 0.033054857792215 60
-0.650908200005880 1.805988839258621 0.033508620359584 65
-0.639228488978140 1.793181180767898 0.033229381856588 57
-0.634608988366870 1.799062699221626 0.033299191482337 54
-0.626349355878672 1.795602576040747 0.033194477043713 52
-0.620752870850034 1.801775613267039 0.033264286669462 18
nan nan nan 0
-0.608159078985712 1.806065342638417 0.033264286669462 3
-0.609429426339696 1.830945444324594 0.033683144423957 3
-0.595535646305862 1.810267046932974 0.033264286669462 3
-0.592922637552932 1.823745118223699 0.033473715546710 3
-0.589639434054734 1.833213430436117 0.033613334798208 3
-0.582025441472805 1.831448939336664 0.033543525172459 3
-0.576826924818062 1.837285182689035 0.033613334798208 4
-0.571594740780416 1.843107402755977 0.033683144423957 5
-0.564307655042567 1.841168926031532 0.033613334798208 8
nan nan nan 0
-0.553979656153040 1.854740122271053 0.033787858862581 65
-0.552026840051073 1.872006891210690 0.034067097365577 56
-0.541342104571422 1.858467946027498 0.033787858862581 55
-0.532641412422118 1.852658878947780 0.033648239611083 56
-0.526938470449717 1.858446378434356 0.033718049236832 54
-0.521525603918738 1.864125914483965 0.033787858862581 56
-0.515015412844739 1.865935021678366 0.033787858862581 54
-0.508498946470464 1.867721393043382 0.033787858862581 54
-0.502821470843310 1.871328562576953 0.033822763675455 49
-0.496286251787530 1.873072336281767 0.033822763675455 47
nan nan nan 0
nan nan nan 0
-0.487801520931965 1.920723083048658 0.034590669558696 3
-0.473326564048256 1.891376158683494 0.034032192552703 2
-0.469593678103613 1.904666188298351 0.034241621429950 2
-0.460110840128644 1.894634483130234 0.034032192552703 2
-0.455355018809152 1.904008428059954 0.034171811804201 3
-0.451456000707658 1.917265085926892 0.034381240681449 3
-0.445095638309206 1.918751626200568 0.034381240681449 4
-0.437505090948599 1.916394536908558 0.034311431055699 7
-0.433004277408845 1.927665431200420 0.034485955120072 13
nan nan nan 0
-0.420723090990180 1.934476151269511 0.034555764745821 43
-0.413967945885989 1.935932963431783 0.034555764745821 55
-0.406047657503972 1.933523213911587 0.034485955120072 57
-0.400912510884862 1.942762524915342 0.034625574371570 56
-0.394128561631609 1.944150134764710 0.034625574371570 56
-0.388901664118980 1.953358870499182 0.034765193623069 53
-0.381610196289643 1.948683737621496 0.034660479184445 48
-0.376315487065413 1.957858934485212 0.034800098435943 45
-0.370590763653178 1.965055760006099 0.034904812874567 40
-0.369548848117254 1.997798789649763 0.035463289880560 8
-0.364006666078754 2.008978121649775 0.035637813944933 2
-0.353495314367493 1.990547604486614 0.035288765816187 1
-0.349287047622419 2.007530192906688 0.035568004319184 1
-0.347651656664401 2.040277726919931 0.036126481325177 1
-0.338907801614860 2.029585048069687 0.035917052447929 1
-0.331821162952191 2.030755692140369 0.035917052447929 3
-0.321259115465628 2.010180583820697 0.035533099506309 4
-0.313931634538960 2.009314014037927 0.035498194693435 6
-0.308726620469821 2.022258351307325 0.035707623570682 13
-0.297537372718761 1.995634018792142 0.035218956190438 37
-0.296107791099227 2.032228124801048 0.035847242822180 43
-0.285916633031555 2.011471609053120 0.035463289880560 43
-0.280540554034247 2.024341980663985 0.035672718757807 47
-0.274542915435723 2.033235762038028 0.035812338009306 47
-0.267965258724270 2.038146974974556 0.035882147635055 49
-0.262117887187985 2.048987586502677 0.036056671699428 49
-0.253976713005211 2.041952446702548 0.035917052447929 46
-0.248046874465564 2.052752821499150 0.036091576512302 41
-0.242277674552374 2.065522637353850 0.036301005389550 21
nan nan nan 0
-0.229748650262165 2.081037240391018 0.036545339079672 1
-0.223333058060889 2.089780026464367 0.036684958331170 1
-0.215672131283055 2.090584546393679 0.036684958331170 1
-0.209959411074625 2.107243387426712 0.036964196834166 1
-0.202203736518019 2.099966094827249 0.036824577582668 2
-0.194872255002828 2.100659123874212 0.036824577582668 4
-0.187538399030710 2.101326557052677 0.036824577582668 5
-0.180031450134928 2.099975999134230 0.036789672769794 14
nan nan nan 0
-0.166621738162497 2.117129918589967 0.037068911272790 43
-0.158630822041686 2.109722372656930 0.036929292021292 50
-0.150836630893036 2.104279511202515 0.036824577582668 44
-0.144266833416100 2.110753256107141 0.036929292021292 49
-0.137156837137727 2.115234991319803 0.036999101647041 43
-0.129891506011145 2.123707350855145 0.037138720898539 47
-0.122592703117216 2.126144198001133 0.037173625711414 43
-0.115586115690252 2.120528647690639 0.037068911272790 38
-0.108998325929615 2.136895992006365 0.037348149775787 9
-0.102772148217629 2.163230200642995 0.037801912343156 1
-0.096803050716579 2.199535471225393 0.038430198974898 1
-0.088740700001556 2.199875498288479 0.038430198974898 1
-0.081061160841428 2.200171858744173 0.038430198974898 1
-0.073380633976636 2.200441410800101 0.038430198974898 2
-0.065341179133707 2.188691322010155 0.038220770097651 3
-0.058892032179733 2.204877655989895 0.038500008600647 5
-0.050870312448444 2.191075698064432 0.038255674910525 27
-0.042379355429353 2.187256233257971 0.038185865284776 36
-0.034902942269596 2.197388055203247 0.038360389349149 29
-0.028101392161873 2.205484994529846 0.038500008600647 28
-0.052551137717625 5.680891546695080 0.099164573376645 41
-0.030781023660169 5.689050114554179 0.099304192628143 41
-0.010941540983930 5.699121359262857 0.099478716692516 34
0.017117302068620 5.769095807004936 -0.100700385143126 10
0.037461714301493 5.800995368279298 -0.101258862149119 10
0.057089190175345 5.840831242468627 -0.101956958406610 10
0.078034156123575 5.882586288589458 -0.102689959476976 10
0.099371826470852 5.930264012724547 -0.103527674985966 12
0.347220168021218 17.147872364253868 -0.299378580025161 11
0.403183473578968 16.982627038236465 -0.296516385369447 11
0.459521728727903 16.873172672767375 -0.294631525474220 21
0.508283558678218 16.541671761280124 -0.288872231349917 4
0.556036272744578 16.248012025235251 -0.283776128670230 4
0.599834959062227 16.052349836297630 -0.280390361821397 40
0.656191047403889 16.058150336792412 -0.280529981072895 40
0.712417695239445 16.059757432320378 -0.280599790698644 17
0.769141521167884 16.071154653546579 -0.280844124388766 10
0.747696715396500 14.558592024030220 -0.254456085855594 3
0.795882286798169 14.507972742867407 -0.253618370346604 16
0.844655645965361 14.473165428824522 -0.253059893340611 1
0.861833862405331 13.931241297566194 -0.243635593864478 1
nan nan nan 0
0.808202374570323 11.734408919103961 -0.205310109328203 1
0.825915327817371 11.410405409172077 -0.199690434455398 11
0.856206461823812 11.281833345219926 -0.197491431244300 3
0.877188101261352 11.071613379244358 -0.193861330705345 3
0.914510735620227 11.052540888321287 -0.193582092202349 1
0.958241262064553 11.109050235908644 -0.194629236588586 3
0.996298028522003 11.097670928042120 -0.194489617337087 3
nan nan nan 0
0.975662887944767 10.077337291490794 -0.176723067583933 24
1.006041789642601 10.026117307333790 -0.175885352074943 30
1.037314627001624 9.986742578319555 -0.175257065443201 12
1.059783406902574 9.867741666739104 -0.173232586296476 22
1.086284665042167 9.792432071627330 -0.171976013032992 20
1.110908700602808 9.705138236785219 -0.170510010892260 12
nan nan nan 0
1.225684643190279 10.084237999582255 -0.177316449402800 4
1.200812300111259 9.599714001835837 -0.168869484687155 2
1.235334755731829 9.603397313662851 -0.169009103938654 2
1.281427774213162 9.694184320973156 -0.170684534956633 4
1.297987652361303 9.574950539814385 -0.168660055809908 2
1.290622845080276 9.277229453710662 -0.163494143504472 2
nan nan nan 0
1.395868424841746 9.545004098526773 -0.168380817306911 2
1.452495716467339 9.684186879418798 -0.170928868646755 8
nan nan nan 0
1.470629987669720 9.369847142238276 -0.165553527464071 72
1.496671797524675 9.323193858575159 -0.164820526393706 59
1.526292073904054 9.300153017830636 -0.164506383077834 57
1.558746367503916 9.294768604528032 -0.164506383077834 78
1.588480744582218 9.273503025775984 -0.164227144574838 72
1.618774672837136 9.256082905177459 -0.164017715697590 74
1.646858162953052 9.226752928565640 -0.163598857943096 74
1.678339034457034 9.217013417358915 -0.163529048317347 76
nan nan nan 0
1.529509968390167 8.079243454698753 -0.143528590540220 9
1.518684147134886 7.871616168631254 -0.139933394814139 11
1.560036091287829 7.936904483915227 -0.141189968077624 11
1.576741075883689 7.876508363296483 -0.140212633317136 11
1.595439714099291 7.827849467552737 -0.139444727433895 11
1.610430952582896 7.769647692177167 -0.138502297486282 19
1.636716898869380 7.760065607922408 -0.138432487860533 2
1.644496943215256 7.664366132457931 -0.136826866468303 2
1.527565027571002 7.000175718960254 -0.125063944529574 42
1.726985123076196 7.783497372734453 -0.139165488930899 26
2.674552758719655 11.858275949333066 -0.212186357464493 17
2.692250633623600 11.745562954732577 -0.210336402382141 24
2.701937326116977 11.601710936103578 -0.207927970293796 11
2.722622524806532 11.508531550764278 -0.206427063340189 26
2.729609922000617 11.360907998565658 -0.203948821626095 13
2.749818589653986 11.271659163376901 -0.202517724298238 27
2.446392701854218 9.878020759283960 -0.177630592718672 54
2.471084670759368 9.845072519834257 -0.177176830151302 66
2.493095717869035 9.787941283392513 -0.176304209829438 44
2.544258578610817 9.845006106625986 -0.177490973467173 30
2.605484915382561 9.938584465961986 -0.179340928549525 26
2.676344694388269 10.058442802818128 -0.181679551012121 11
2.833336448415809 10.500811710596894 -0.189847277224770 33
2.842535242493700 10.390558852959138 -0.188032226955293 33
2.855274348415939 10.295786685940985 -0.186496415188812 35
2.865447068446332 10.207829344481489 -0.185065317860954 31
2.873703403432122 10.101595839192523 -0.183320077217226 35
2.881253338065810 9.995430244897312 -0.181574836573498 35
2.890339762829390 9.897014253652177 -0.179969215181268 33
2.903312736002723 9.813998058662690 -0.178642832292034 36
2.912871804077838 9.721435006792760 -0.177141925338428 40
2.922274710046488 9.618338631405821 -0.175466494320448 40
2.930547557338619 9.525893710754323 -0.173965587366842 46
2.938481794939302 9.445990916404220 -0.172674109290483 54
2.949813001412254 9.367011438289252 -0.171417536026999 44
2.962249924894207 9.287551917982244 -0.170160962763514 50
2.970694272227620 9.202937911919932 -0.168799675061406 48
2.973889813318788 9.109393952304094 -0.167263863294925 53
2.985598166080462 9.038196656149539 -0.166146909282939 48
2.993042845430933 8.955649877004683 -0.164820526393706 46
3.004431182498716 8.886422619970050 -0.163738477194594 53
3.016020010061099 8.819117803337253 -0.162691332808357 55
3.018678012576206 8.727273153912494 -0.161190425854751 48
3.028845034780571 8.653865345170798 -0.160038567029890 55
3.039685901358235 8.588571723415930 -0.159026327456527 63
3.043094081041678 8.513074656287536 -0.157804659005918 58
3.053081264170673 8.447861678056672 -0.156792419432555 56
3.059994147730386 8.370879855624182 -0.155570750981945 63
3.067015779672447 8.300123988943886 -0.154453796969959 60
3.074980307240709 8.233168436818532 -0.153406652583722 58
3.085339780230683 8.173742500021234 -0.152499127448983 63
3.093905806613785 8.114885263878307 -0.151591602314245 63
3.092019098319828 8.025664097119815 -0.150125600173513 56
3.102544582236855 7.965830219212213 -0.149218075038774 64
3.109828860211945 7.902849178816120 -0.148240740278286 66
3.117558354902432 7.846033937028221 -0.147368119956422 68
3.124815091216626 7.784997762556537 -0.146425690008809 61
3.133031992891834 7.723460438984471 -0.145483260061195 71
3.100837045877455 7.568145677894305 -0.142760684656979 16
2.962845761035577 7.160010528639657 -0.135256149888947 9
2.951581436249130 7.062906617696223 -0.133615623683843 7
2.947008718945696 6.986750080848025 -0.132359050420358 7
2.940035412701392 6.902829601106420 -0.130962857905375 38
2.969267447153170 6.901191912584856 -0.131137381969748 45
2.993339012676165 6.890785190545487 -0.131137381969748 47
3.020990107064783 6.891809834020163 -0.131346810846996 45
3.048265417485058 6.888537236835162 -0.131486430098494 45
3.070276607774451 6.876564989022724 -0.131451525285619 40
3.095083224709783 6.867628932231273 -0.131486430098494 30
3.183620056763206 6.998760695795866 -0.134209005502710 30
3.208865233322143 6.989422471629513 -0.134243910315585 30
3.104619756996965 6.700575800546459 -0.128903473945776 26
2.491889309068607 5.329296242804691 -0.102689959476976 32
2.507063550313646 5.313331514446316 -0.102550340225478 46
2.519577849056493 5.291909385427026 -0.102306006535356 54
2.537168781999545 5.281279692782747 -0.102271101722481 58
2.559077289059347 5.279588949231774 -0.102410720973980 56
2.572219960380433 5.259845565348306 -0.102201292096732 56
2.593218843887269 5.256214751009966 -0.102306006535356 50
2.617787729402457 5.259662235496646 -0.102550340225478 36
2.653179249043308 5.284447259584125 -0.103213531670095 28
3.284173019097513 6.484674957259671 -0.126878994799051 60
3.279497509200382 6.419747848052148 -0.125831850412814 54
3.284287178007591 6.376837601820472 -0.125203563781072 58
3.292699361228471 6.338716101566883 -0.124679991587953 65
3.301813590267965 6.302385225461334 -0.124191324207709 65
3.305109414208478 6.255459789876435 -0.123493227950218 63
3.305297074996133 6.203294149686603 -0.122690417254103 60
3.308000572365621 6.156488454212075 -0.121992320996612 58
3.318038915406331 6.123805487512198 -0.121573463242117 63
3.325013225974288 6.085863124567713 -0.121049891048998 63
3.330798364462998 6.046195504152387 -0.120491414043005 67
3.332463283786603 5.999569486490522 -0.119793317785514 56
3.334820607758252 5.954750668757584 -0.119130126340897 60
3.337889047132804 5.911730205533436 -0.118501839709155 58
3.348611998766823 5.882664158317779 -0.118152791580409 63
3.352205649921927 5.841454704592687 -0.117559409761542 63
3.353549896182769 5.796830372535990 -0.116896218316925 63
3.354623683859396 5.752268232893327 -0.116233026872308 59
3.363534810040621 5.721560676398914 -0.115849073930688 57
3.367175421160694 5.682259564767527 -0.115290596924695 53
3.372633698283813 5.646436615616377 -0.114801929544451 55
3.372726014027858 5.602079219608086 -0.114138738099834 53
3.378774321574425 5.568047755740558 -0.113684975532465 53
3.383582955428872 5.532336665420130 -0.113196308152221 44
3.388362131594551 5.501247795896656 -0.112777450397726 36
3.392779455727898 5.465601045996603 -0.112288783017482 34
3.395815324025931 5.426007613690682 -0.111730306011489 27
3.397666595885586 5.387058801204867 -0.111171829005496 17
3.410014227554233 5.365040010441255 -0.110962400128249 8
3.419013957396029 5.337949093275012 -0.110648256812377 4
3.451874274728463 5.350106220959436 -0.111136924192621 2
nan nan nan 0
nan nan nan 0
nan nan nan 0
nan nan nan 0
nan nan nan 0
nan nan nan 0
nan nan nan 0
nan nan nan 0
nan nan nan 0
nan nan nan 0
nan nan nan 0
nan nan nan 0
nan nan nan 0
nan nan nan 0
nan nan nan 0
nan nan nan 0
nan nan nan 0
nan nan nan 0
nan nan nan 0
nan nan nan 0
nan nan nan 0
0.529791654481702 0.697469046251405 -0.015288308039060 7
0.532223048123015 0.695615479042804 -0.015288308039060 7
0.517558752695993 0.671578668619051 -0.014799640658816 8
0.537066350949248 0.691882939748742 -0.015288308039060 7
0.497600897836761 0.636442057784954 -0.014101544401325 10
0.457755449383820 0.581285779111485 -0.012914780763590 12
0.531855618887646 0.670553815268373 -0.014939259910315 8
0.511726985487940 0.640570595927760 -0.014310973278572 9
0.486276028360715 0.604589289987223 -0.013543067395332 11
0.508523001055752 0.627749555031901 -0.014101544401325 10
0.490484973363681 0.601179737042055 -0.013543067395332 11
0.556057361852687 0.676714472999309 -0.015288308039060 7
nan nan nan 0
nan nan nan 0
nan nan nan 0
nan nan nan 0
nan nan nan 0
nan nan nan 0
nan nan nan 0
nan nan nan 0
nan nan nan 0
nan nan nan 0
nan nan nan 0
nan nan nan 0
nan nan nan 0
nan nan nan 0
nan nan nan 0
nan nan nan 0
nan nan nan 0
nan nan nan 0
nan nan nan 0
nan nan nan 0
nan nan nan 0
nan nan nan 0
nan nan nan 0
nan nan nan 0
nan nan nan 0
nan nan nan 0
3.680448477332564 3.706232964449045 -0.091171371228369 2
3.591555353826027 3.591555353826028 -0.088658224701400 4
3.600608274217586 3.576806976669310 -0.088588415075651 16
3.608800954055081 3.560003695044812 -0.088483700637027 38
3.600591159761257 3.528422335034629 -0.087995033256783 54
3.618618180589549 3.521410902768098 -0.088134652508282 80
3.601905048945517 3.478319273687612 -0.087401651437916 72
3.609694803199532 3.461572861077003 -0.087296936999292 68
3.618859709643717 3.446193527671880 -0.087227127373543 63
3.625055410545425 3.428044491602237 -0.087087508122045 63
3.624149125033460 3.405683990602322 -0.086808269619048 63
3.615546982334432 3.373912409177470 -0.086319602238804 67
3.618501536084082 3.353116113617419 -0.086110173361557 67
3.624298060899176 3.335048519825234 -0.085970554110059 65
3.630012612388802 3.316981381394766 -0.085830934858560 67
3.629721606318488 3.293540035869524 -0.085551696355564 67
3.623368939545542 3.264786965136982 -0.085132838601069 67
3.631762578836732 3.249452392644445 -0.085063028975320 65
3.634113729293248 3.228786346154344 -0.084853600098072 65
3.645362156657439 3.216081251050760 -0.084853600098072 65
3.641524758921061 3.190159934997207 -0.084504551969327 63
3.640568459951449 3.166929646357531 -0.084225313466330 63
3.642521107853113 3.146359373940181 -0.084015884589083 61
3.653481760169465 3.133625433782050 -0.084015884589083 63
3.658308327378638 3.115667015896457 -0.083876265337585 63
3.660000294638518 3.095130644047629 -0.083666836460337 63
3.656003620260971 3.068838815380535 -0.083317788331591 63
3.648260278100448 3.040694774314517 -0.082898930577097 65
3.658852057167589 3.027941444458541 -0.082898930577097 65
3.666309233852422 3.012612145379969 -0.082829120951348 65
3.666983987194855 2.992851219846739 -0.082619692074100 65
3.661872488815078 2.967442908769111 -0.082270643945354 63
3.665461620918050 2.950268055678935 -0.082131024693856 65
3.672613348142836 2.934958458313271 -0.082061215068107 63
3.676569899766147 2.917149057602714 -0.081921595816609 63
3.680446944553627 2.899347857128389 -0.081781976565111 65
3.674793768366731 2.874163432746878 -0.081432928436365 63
3.675327518625811 2.853959770906241 -0.081223499559117 63
3.682099908215633 2.838671228678768 -0.081153689933368 61
3.685634482979361 2.820939414135833 -0.081014070681870 60
3.695948987099339 2.807411940758058 -0.081014070681870 60
3.686566875754984 2.780045518015727 -0.080595212927375 60
3.692564386092453 2.765407730152062 -0.080525403301626 60
3.698985432305043 2.750115210139630 -0.080455593675877 61
3.705822006871454 2.734164841246751 -0.080385784050128 60
3.705663871346278 2.714122883118986 -0.080176355172880 61
3.692003445582618 2.685352198543114 -0.079687687792637 63
3.701354581086407 2.672448341406233 -0.079687687792637 63
3.707409928520768 2.657182081713979 -0.079617878166887 61
3.710145035933654 2.639587660733519 -0.079478258915389 63
3.709078409856493 2.620346885837982 -0.079268830038142 61
3.698555489334960 2.593606364539749 -0.078849972283647 61
3.707586332196152 2.580680195449090 -0.078849972283647 61
3.716571999287929 2.567722581584660 -0.078849972283647 63
3.716061906174793 2.547299663253091 -0.078640543406400 61
3.718317719978849 2.529813221998439 -0.078500924154901 61
3.711773064445927 2.507394573128793 -0.078186780839030 60
3.718841952678595 2.493309209719333 -0.078151876026156 61
3.719630363445630 2.474124793116621 -0.077977351961783 58
3.724906279753739 2.458922451379531 -0.077907542336034 58
3.731367370740781 2.445460569483019 -0.077872637523159 60
3.724793964124461 2.422608223547152 -0.077558494207288 58
3.726507270226815 2.405253808384319 -0.077418874955790 58
3.741616052131570 2.396545430073811 -0.077558494207288 56
3.739832860376791 2.377034139119277 -0.077349065330041 58
3.744724705138957 2.361831661943701 -0.077279255704291 58
3.742775636060301 2.342380579646754 -0.077069826827044 56
3.740736525299900 2.322971960122255 -0.076860397949797 58
3.745417495816801 2.307802198537442 -0.076790588324047 60
3.753450410462080 2.294714191734320 -0.076790588324047 58
3.754598613061353 2.277449864154644 -0.076650969072549 58
3.748818689849136 2.256081068890837 -0.076371730569553 58
