# This PCD file was generated using the MATLABÂ® pcwrite function
# from Computer Vision ToolboxÂ®.
# .PCD v.7 - Point Cloud Data file format
VERSION .7
FIELDS x y z intensity
SIZE 8 8 8 1
TYPE F F F U
COUNT 1 1 1 1
WIDTH 873
HEIGHT 1
VIEWPOINT 0 0 0 1 0 0 0
POINTS 873
DATA ascii
nan nan nan 0
nan nan nan 0
nan nan nan 0
nan nan nan 0
-1.718711566680260 -1.258367425255540 0.414055519967102 1
-1.691116948616392 -1.229570527051787 0.406423160152040 2
-1.666744022819451 -1.202978359928905 0.399554036318485 3
-1.664757467206204 -1.192288821298948 0.398027564355472 3
-1.670509294283452 -1.187608025038066 0.398409182346226 6
-1.671436511103258 -1.179505697608398 0.397645946364719 8
-1.670719549574095 -1.170285038100769 0.396501092392460 12
-1.674591168427631 -1.164738297797307 0.396501092392460 16
-1.667337203854660 -1.151078087574601 0.393829766457188 21
-1.658388894979235 -1.136373067254764 0.390776822531164 23
-1.641241478489636 -1.116224254579909 0.385815788651374 28
-1.654891199165437 -1.117078888188672 0.388105496595892 33
-1.665304660230076 -1.115666311086297 0.389631968558905 37
-1.643031206068533 -1.092454210162888 0.383526080706855 33
-1.637002724797952 -1.080224470694446 0.381236372762337 34
-1.640388266199022 -1.075076352730160 0.381236372762337 36
-1.650714096248282 -1.073625436148464 0.382762844725349 41
-1.649503182134824 -1.064662839240980 0.381617990753090 37
-1.648249871144565 -1.055721816796489 0.380473136780830 37
-1.646954299276237 -1.046802555383306 0.379328282808571 38
-1.647277164971975 -1.038952572104577 0.378565046827065 38
-1.652377424171482 -1.034526110502712 0.378946664817818 39
-1.655978527354467 -1.028751934221455 0.378946664817818 41
-1.654545678179330 -1.019874693548143 0.377801810845559 38
-1.649721404834134 -1.008971355899767 0.375893720891793 39
-1.651554911994767 -1.002188122679966 0.375512102901040 38
-1.655043139545818 -0.996417014516091 0.375512102901040 38
-1.658511200918515 -0.990633765325342 0.375512102901040 38
-1.660270071077313 -0.983837593495953 0.375130484910287 39
-1.653539393546929 -0.972066473560330 0.372840776965769 39
-1.658618393658583 -0.967277658234874 0.373222394956522 42
-1.666914480115668 -0.964722384372938 0.374367248928781 41
-1.663461347676437 -0.954988010300682 0.372840776965769 41
-1.666950380561875 -0.948884705207215 0.372840776965769 41
-1.661704587564072 -0.938233875627273 0.370932687012003 42
-1.654530161744253 -0.926960785504320 0.368642979067485 44
-1.662904088630009 -0.924040556768678 0.369787833039744 46
-1.660961196540917 -0.915387490393885 0.368642979067485 44
-1.664146376035732 -0.909584076988702 0.368642979067485 44
-1.660407297983134 -0.900027263484702 0.367116507104472 44
-1.658351112520632 -0.891437230939597 0.365971653132213 46
-1.663030430093560 -0.886856848268271 0.366353271122966 44
-1.674793693989206 -0.885635168967393 0.368261361076731 46
-1.671072901503988 -0.875845236880232 0.366734889113719 46
-1.663667629103978 -0.864574883855700 0.364445181169201 47
-1.663035409535942 -0.857254145148401 0.363681945187694 46
-1.666017653150090 -0.851443845556924 0.363681945187694 46
-1.672482177341003 -0.847397826524972 0.364445181169201 46
-1.670166827670191 -0.838910984555982 0.363300327196941 44
-1.662540344907453 -0.827825425039597 0.361010619252423 49
-1.651335977202840 -0.815065514587916 0.357957675326398 41
-1.652125220534810 -0.809010271191351 0.357576057335645 39
-1.670835021509971 -0.810953552111808 0.361010619252423 49
-1.666578830517778 -0.801712011583711 0.359484147289410 42
-1.651645654419851 -0.787440746478403 0.355667967381880 41
-1.665034815716652 -0.786702844234300 0.357957675326398 49
-1.657102733800702 -0.775890988869366 0.355667967381880 41
-1.672267319689333 -0.775885920972936 0.358339293317151 47
-1.673181703149720 -0.769223823681979 0.357957675326398 49
-1.654285516286200 -0.753901343918899 0.353378259437361 41
-1.665853626920098 -0.752161753623170 0.355286349391126 47
-1.659508384035974 -0.742333974078603 0.353378259437361 40
-1.676448807440705 -0.742899854152341 0.356431203363386 49
-1.662852691103349 -0.729941298199906 0.352996641446608 38
-1.667190953257045 -0.724915257899078 0.353378259437361 44
-1.655286071678684 -0.712878807525119 0.350325315511336 24
-1.663181929241994 -0.709407210427166 0.351470169483596 15
-1.678307738742951 -0.708944945181225 0.354141495418867 6
-1.655415716535556 -0.692475394643323 0.348798843548324 4
-5.845911327515418 -2.421455756287388 1.229954784197208 5
-5.814366885747542 -2.384645648132318 1.221559188400640 3
-5.869533629728513 -2.384563877360403 1.231481256160220 1
nan nan nan 0
nan nan nan 0
nan nan nan 0
-6.194898781904033 -2.416535760588594 1.292540134680715 1
nan nan nan 0
nan nan nan 0
nan nan nan 0
nan nan nan 0
nan nan nan 0
-8.264693410510061 -3.026084036010394 1.710793452546101 4
-8.308432409698783 -3.009250765086163 1.717662576379656 3
-8.403379053768312 -3.012155113515218 1.735217003954298 1
-8.376833917986618 -2.969683620826179 1.727584644139237 1
-8.387149013781560 -2.940424921326394 1.727584644139237 1
-8.304614378753252 -2.878977418266272 1.708503744601582 3
-8.388900655470993 -2.875434588781082 1.723768464231706 4
-8.625732862979680 -2.923005803809077 1.770325859103583 6
-8.717793158118893 -2.920316951867465 1.787117050696719 1
-8.407369126454398 -2.783727584228262 1.721478756287187 1
nan nan nan 0
-8.792728351589378 -2.843363692740647 1.796275882474793 1
-8.783898891338284 -2.806678549712912 1.792459702567262 1
-8.576469310900306 -2.707442120459483 1.748192015639904 1
nan nan nan 0
nan nan nan 0
nan nan nan 0
nan nan nan 0
-8.557532656474759 -2.541356484745095 1.735217003954298 1
-8.558815683519251 -2.509260296348045 1.733690531991286 3
-8.564183157262608 -2.476782960940205 1.732927296009780 4
-8.599206620555297 -2.454417056103970 1.738269947880323 3
-8.686663251391485 -2.448255791931977 1.754297903491953 1
-8.600582089075633 -2.391619885822009 1.735217003954298 1
nan nan nan 0
nan nan nan 0
nan nan nan 0
-5.739338302422482 -1.511041672796276 1.153631186046590 5
-5.725574952239300 -1.486066256244107 1.149815006139059 7
-5.734531410293338 -1.467044380077800 1.150578242120565 7
-5.749135850946404 -1.449417890652874 1.152486332074331 8
-5.761781642143197 -1.431233997772381 1.154012804037343 8
-5.784152332981640 -1.414303144275977 1.157447365954121 5
-5.787145244153663 -1.393644423071974 1.157065747963368 7
-5.808686054592770 -1.379539542727053 1.160500309880145 5
-5.868905328603228 -1.372217353667297 1.171567231611985 8
-5.877485993948453 -1.352603292060093 1.172330467593491 10
-5.866853497542049 -1.328609841535394 1.169277523667467 10
-5.869767343671342 -1.306671226002047 1.168895905676714 10
-5.874292716804270 -1.286173953628564 1.168895905676714 10
-5.874907958840472 -1.264834590428182 1.168132669695207 10
-5.881207971568519 -1.244726136398160 1.168514287685960 12
-5.873771022355812 -1.222815687885978 1.166224579741442 10
-5.866463077540801 -1.199944404572812 1.163934871796923 10
-5.866766340461283 -1.178685900511675 1.163171635815417 12
-5.878549500690558 -1.159719830678139 1.164698107778430 10
-5.878508188508694 -1.139472286565724 1.163934871796923 12
-5.870877842633510 -1.116744317278237 1.161645163852405 12
-5.868950417529438 -1.095163927158454 1.160500309880145 12
-5.886255801393144 -1.077144552137753 1.163171635815417 12
-5.892096665261175 -1.055909424512921 1.163553253806170 12
-5.888011917701313 -1.033977473297429 1.162026781843158 12
-5.883669212025057 -1.013113830838632 1.160500309880145 12
-5.883297929543450 -0.991917028614179 1.159737073898639 12
-5.880913343865315 -0.970415534641187 1.158592219926380 12
-5.884264897688070 -0.949881404051094 1.158592219926380 10
-5.889483997589993 -0.929641804758708 1.158973837917133 5
-5.884931969590045 -0.907880668558873 1.157447365954121 3
-5.870593207916176 -0.884699856045163 1.154012804037343 7
-5.881414993572560 -0.865345396359438 1.155539276000355 12
-5.886195524434378 -0.846116502003997 1.155920893991108 5
-5.912444081897344 -0.828835332985488 1.160500309880145 3
-5.911410870668051 -0.807660471716064 1.159737073898639 5
-5.894733129945234 -0.784431140101451 1.155920893991108 10
-5.897435392883112 -0.763849902536097 1.155920893991108 5
-5.903961516017143 -0.743750119904568 1.156684129972615 5
-5.910419127402840 -0.723614077721354 1.157447365954121 5
-5.916808053399460 -0.703442009543937 1.158210601935627 10
-5.913376510821513 -0.682109299272749 1.157065747963368 12
-5.927428063169024 -0.662772572465799 1.159355455907886 14
-5.933496921605945 -0.643536247636152 1.160118691889392 14
-5.945469809632050 -0.623844933483529 1.162026781843158 14
-5.949564451488913 -0.603285628516879 1.162408399833911 14
-5.918417459451531 -0.579263033944062 1.155920893991108 10
-5.896948524661807 -0.556387363525337 1.151341478102071 5
-5.896899547351095 -0.535622188546165 1.150959860111318 7
-3.354220024996091 -0.292866333352985 0.654474854141549 1
-3.208492064211184 -0.268860678381045 0.625853504835067 6
nan nan nan 0
nan nan nan 0
-3.207174520224154 -0.235520174527688 0.625090268853561 58
-3.180558492158954 -0.222406315556535 0.619747616983018 47
-3.169525038182116 -0.211075254121525 0.617457909038499 47
-3.166323800910075 -0.199763029646393 0.616694673056993 47
-3.170921370384182 -0.188942831054019 0.617457909038499 47
-3.173521759639820 -0.177983032710559 0.617839527029252 51
-3.176084248016377 -0.167007381131494 0.618221145020005 46
-3.176647862775551 -0.155919760690169 0.618221145020005 46
-3.171263838666793 -0.145115528428615 0.617076291047746 48
-3.173712569409088 -0.134127764987621 0.617457909038499 47
-3.182008550768477 -0.123352822880053 0.618984381001511 47
-3.182419746589229 -0.112244788721447 0.618984381001511 47
-3.190605637170904 -0.102498533679711 0.620510852964524 55
-3.177206834331801 -0.090967305750855 0.617839527029252 48
-3.181430281555306 -0.079974903553419 0.618602763010758 48
-3.193466831366894 -0.069124065784221 0.620892470955277 48
-3.187789722147701 -0.058425838576405 0.619747616983018 47
-3.187974245277934 -0.047298019921152 0.619747616983018 47
-3.182230539852088 -0.036102809144809 0.618602763010758 48
-3.182337174936484 -0.024994531656635 0.618602763010758 46
-3.192218732986134 -0.014485928539171 0.620510852964524 46
-3.192249850224161 -0.003342917447936 0.620510852964524 47
-3.196167156182151 0.008367565164726 0.621274088946030 47
-3.192192040310955 0.019500234065920 0.620510852964524 47
-3.188183489103076 0.030048811197894 0.619747616983018 47
-3.195911538174558 0.041278887666903 0.621274088946030 46
-3.201646067492497 0.051972281134359 0.622418942918289 46
-3.195556527173260 0.063031643201313 0.621274088946030 46
-3.193379997085594 0.073025568978703 0.620892470955277 46
-3.198993352943647 0.084327304115327 0.622037324927536 46
-3.202604266488463 0.095610530807425 0.622800560909042 47
-3.200288848482285 0.106723688918668 0.622418942918289 45
-3.205803151201152 0.117551465138491 0.623563796890548 47
-3.195564925365222 0.128347145696702 0.621655706936783 45
-3.200981599095657 0.139757874849312 0.622800560909042 46
-3.202435326505784 0.151023016290565 0.623182178899795 45
-3.213681452731437 0.162235751723770 0.625471886844314 46
-3.218976765364639 0.173770089978165 0.626616740816573 46
-3.208550490317471 0.184442003406718 0.624708650862808 51
-3.205927506599328 0.195521299236160 0.624327032872055 45
-3.220898952513450 0.207721694607484 0.627379976798079 46
-3.224071708253525 0.219229843493403 0.628143212779586 46
-3.236994592234261 0.231462799585834 0.630814538714857 57
-3.238124669136357 0.242907469812328 0.631196156705610 55
-3.221599202763226 0.252979605886113 0.628143212779586 25
-3.218739831310594 0.264063019832074 0.627761594788832 21
nan nan nan 0
-12.001165990842058 1.066853096922463 2.341989609251711 3
-12.013008255718267 1.110183800922363 2.345042553177736 3
-12.009059803705156 1.152110261571658 2.345042553177736 3
-12.001057794811492 1.193634068113138 2.344279317196230 3
-12.016347369558785 1.237529567557379 2.348095497103761 3
-12.019763221583572 1.280298675913442 2.349621969066773 3
-12.026929756301229 1.323536210511065 2.351911677011291 3
-12.026137904071852 1.365953098031051 2.352674912992797 3
-12.032996129315698 1.409294073643616 2.354964620937316 3
-12.051392874614235 1.454110628519860 2.359544036826353 3
-12.038450521695459 1.495201056877068 2.358017564863341 3
-12.033157953649976 1.537213981951212 2.358017564863341 3
-12.043291147654662 1.581252789830895 2.361070508789366 3
-12.061045899081874 1.626430525448102 2.365649924678403 3
-12.066963413660158 1.670136482339339 2.367939632622921 3
-12.061358693241406 1.710142792056736 2.367939632622921 3
-11.853260447921247 1.722865737956753 2.328251361584600 3
-12.076625281770340 1.796245251020856 2.373282284493464 3
-12.058636410089274 1.836615945487538 2.370992576548946 3
-12.090619386422567 1.886855125538300 2.378624936364008 3
-11.137870463061413 1.778016914208226 2.192395356876500 1
-12.081027349082886 1.971849415146514 2.379388172345514 3
-12.097308695307156 2.017884255524344 2.383967588234551 3
-12.117286297877788 2.064716288450343 2.389310240105094 3
-12.110005270388696 2.107000932056504 2.389310240105094 3
-12.118040767682320 2.152006121850444 2.392363184031119 3
-12.114318637483343 2.194992912827118 2.393126420012625 3
-12.130140715578595 2.239430495627305 2.397705835901662 3
-12.133825980602566 2.283937928660202 2.399995543846181 3
-12.140797659850737 2.331357147238184 2.403048487772205 3
-12.105611592357800 2.368444784970845 2.397705835901662 1
-11.939802928866161 2.377140882003977 2.366413160659909 1
-11.815985562770969 2.395400082966527 2.343516081214723 1
-9.419168424705777 1.945473190290991 1.869546536699386 1
nan nan nan 0
-8.979484767527763 1.918478737516008 1.784827342752200 1
nan nan nan 0
nan nan nan 0
nan nan nan 0
-8.825146909653393 2.016365824685273 1.759640555362496 4
nan nan nan 0
nan nan nan 0
-8.815371945880221 2.109875636863663 1.761930263307015 4
nan nan nan 0
-10.462990290793186 2.579640529559451 2.094701151243709 1
-10.308727800827425 2.581723870069764 2.065698183946474 1
-10.208320501234001 2.594479822394434 2.047380520390326 1
-10.119812537610464 2.607741735906581 2.031352564778696 1
-10.049866513413630 2.627161497978873 2.019140789074597 1
-9.904459858795935 2.624269850175409 1.991664293740375 1
-9.815606984603436 2.637429920067925 1.975636338128745 1
-9.715418610831186 2.646905518239062 1.957318674572597 1
-9.626639193434764 2.658850161987636 1.941290718960967 1
-9.556801375324326 2.675500308966908 1.929078943256868 1
-9.445413841604957 2.679906270863956 1.908471571756201 1
-9.413359802641683 2.706351027645380 1.903892155867164 1
-9.430244376130283 2.746879949212555 1.909234807737707 1
-9.406018848427198 2.773694309960585 1.906181863811683 1
-9.396279543773081 2.806510544670545 1.906181863811683 1
-9.374655664960130 2.837518250559526 1.903892155867164 1
-9.345923081221509 2.864471512421114 1.900075975959633 1
-9.355124266158299 2.901263280635460 1.903892155867164 1
-9.326208884423496 2.928020343112615 1.900075975959633 1
-9.394515243379130 2.985530617048552 1.916103931571263 1
nan nan nan 0
-12.312561459337257 4.005345903950273 2.516770649016626 1
-12.250019792524380 4.032340421319923 2.506848581257046 1
-12.247045677678186 4.078798501339178 2.509138289201564 1
-12.269943236163213 4.134060773813207 2.516770649016626 1
-12.296320349646164 4.190799123667664 2.525166244813194 1
-12.333586784248952 4.251610748774449 2.535851548554281 1
-12.251933033086726 4.271370441702093 2.522113300887169 1
-12.173995544080425 4.291917699394133 2.509138289201564 1
-12.236609060508389 4.362074063600939 2.525166244813194 1
-12.206532382678805 4.399435837479818 2.522113300887169 1
nan nan nan 0
-11.255112736829238 4.143305626715451 2.331304305510625 1
nan nan nan 0
-11.292066648413604 4.246658242850583 2.345042553177736 1
-11.156052443249463 4.240014989290453 2.319855765788032 1
-9.634677515419158 3.700335666869929 2.006165777388992 3
-11.185505798505583 4.338571771161203 2.332067541492131 1
-11.152014216920264 4.370426581340521 2.328251361584600 1
-11.216232406314230 4.443085192896052 2.345042553177736 1
-11.200654811571567 4.482210081623166 2.345042553177736 1
-11.131120749768735 4.497264705844461 2.333594013455143 1
-11.115354551761859 4.536092169367071 2.333594013455143 1
-11.044999345531009 4.552420219624175 2.322145473732550 1
-9.017170039289482 3.753485615186813 1.898549503996621 1
nan nan nan 0
nan nan nan 0
nan nan nan 0
nan nan nan 0
-6.755959515215626 2.950202041681820 1.432975555277851 1
-6.684541377061875 2.946840517324522 1.420000543592246 3
-6.649102999210720 2.958980965683377 1.414657891721703 3
-6.585007792451471 2.958038520340067 1.403209351999110 4
-6.496482163248884 2.944201111861350 1.386418160405975 3
-6.436175690576997 2.943994155415119 1.375732856664888 3
-6.383080371196412 2.946693809908271 1.366574024886814 3
-6.426143669408877 2.993829546173853 1.378022564609407 1
-3.729899504830957 1.751977965366630 0.801016162590735 1
nan nan nan 0
-6.168290491042230 2.951379509633647 1.329175461793011 1
-6.129662643981962 2.959236180754039 1.323069573940962 4
-6.127396942817930 2.981914824457774 1.324596045903974 17
-6.122237693888238 3.005881016595533 1.325740899876233 24
-6.122963604153353 3.035470583044400 1.328412225811505 29
-6.128133741498797 3.064728532891914 1.331846787728283 24
-6.124409852814958 3.089638118790496 1.333373259691295 24
-6.129335341176837 3.119010920706771 1.336807821608073 26
-6.131186063666946 3.145592641457693 1.339479147543345 24
-6.128886731785331 3.171486671582524 1.341387237497110 26
-6.137483001739985 3.201781896986854 1.345585035395394 26
-6.133219128958868 3.226842683323063 1.347111507358406 26
-6.151969864817673 3.262801326136168 1.353599013201209 27
-6.144005469697787 3.286107680267403 1.354362249182715 27
-6.144014531657101 3.315130361055033 1.357033575117987 27
-6.153099416279591 3.347816248855463 1.361612991007024 26
-6.164342057129643 3.380474291753648 1.366574024886814 26
-6.169685411929465 3.411471325458924 1.370390204794345 13
-6.192034969651790 3.452106711275983 1.378022564609407 6
-6.229578400969805 3.501597256268445 1.389089486341246 6
-6.241230352800639 3.536872445424363 1.394432138211789 6
-6.244188326342247 3.567401972562510 1.397866700128567 4
-6.262949733494724 3.605720718607562 1.404735823962123 3
-6.267305228731290 3.637415349161026 1.408552003869654 1
-6.264737374445347 3.665218587401422 1.410841711814172 1
-6.275580260601814 3.701026646864325 1.416184363684716 1
-6.289624372584728 3.738961311938337 1.422290251536765 1
-6.293375358882900 3.770984359341569 1.426106431444296 1
-6.280173825595838 3.792929364817403 1.426106431444296 1
-6.303789457005796 3.837286334844512 1.434502027240864 1
-6.287009598807344 3.857213940520086 1.433738791259358 1
-6.283526016299895 3.885331253825938 1.436028499203876 1
-6.294620828199759 3.919580823767280 1.441371151074420 1
-6.264271251855530 3.931093663098059 1.437554971166888 1
-6.300289435996465 3.984416876796567 1.449003510889481 1
-6.302898920134443 4.016936164367135 1.452819690797012 1
-6.354915379913112 4.081349614772618 1.468084410427136 1
-6.307666070377556 4.082173998309080 1.460452050612074 1
-6.369748538603456 4.152386832340799 1.478006478186716 1
-6.394596855792853 4.200465021009164 1.487165309964790 1
-6.347152938917022 4.201088884969974 1.479532950149729 1
-6.352049783787411 4.236290597829323 1.484112366038766 1
-6.350259873102108 4.267197544631200 1.487165309964790 1
-6.361336975085639 4.306948922285819 1.493271197816840 1
-6.401406759154225 4.366743621992723 1.506246209502445 1
-6.386124979789598 4.389062097859499 1.506246209502445 1
-6.370765387507430 4.411327094389716 1.506246209502445 1
-6.381090837488733 4.451510626444108 1.512352097354494 1
-6.340591082759373 4.454588990871305 1.506246209502445 1
-6.357052709697108 4.499378681939746 1.513878569317507 1
-6.389263661839648 4.555735184349809 1.525327109040099 1
-6.389267517370729 4.589463737010860 1.529143288947630 1
-6.335035925220565 4.584116389897599 1.519984457169556 1
-6.420531235789347 4.680215652434641 1.544408008577754 1
-6.404155118325160 4.702598975403977 1.544408008577754 1
-6.444522622528412 4.766955465689777 1.558146256244865 1
-6.449883700489326 4.805844221815999 1.563488908115408 1
nan nan nan 0
-6.494479011815451 4.909954293982129 1.582569807653063 1
-6.477300506321862 4.932594343214076 1.582569807653063 1
-6.460043076965719 4.955174290340575 1.582569807653063 1
-6.442706934023349 4.977693860232106 1.582569807653063 1
-6.457156755229081 5.023140422582182 1.590202167468124 1
-6.433401878267475 5.040806067209479 1.588675695505112 1
-6.428096109191803 5.072962088307768 1.591728639431137 1
-6.425717858740820 5.107585606658083 1.595544819338668 3
-6.420110804493333 5.139800234378092 1.598597763264692 9
-6.405187079045221 5.164643925434005 1.599360999246199 9
-6.390168102046333 5.189446026256228 1.600124235227705 4
-3.890378592184506 3.181970871653338 0.976942056327909 6
-3.873186414947423 3.190538423659057 0.975415584364897 8
-3.848427078450462 3.192757102231542 0.971981022448119 9
-3.823699611936318 3.194841941547385 0.968546460531342 11
nan nan nan 0
-3.784448300623452 3.204906019956257 0.963967044642304 34
-3.744856592668615 3.193890889850290 0.956716302817996 27
-3.731636163213757 3.206315567125559 0.956334684827243 29
-3.705575244173054 3.206475418205687 0.952518504919712 27
-3.672158298008517 3.200043454521725 0.946794235058415 27
-3.659490088907914 3.211547204610247 0.946412617067662 29
-3.635017758448669 3.212600548351238 0.942978055150885 29
-3.619381971127440 3.221353809850025 0.941833201178625 27
-3.593157363787143 3.218300173939270 0.937635403280341 27
-3.565865319894175 3.216358617634953 0.933437605382057 29
-3.545896989834397 3.220866052877861 0.931147897437539 27
-3.562156243772843 3.258400664249514 0.938398639261847 39
-3.547872629799345 3.268154778041577 0.937635403280341 52
-3.546518362099988 3.289865462641208 0.940306729215613 50
-3.547068461080049 3.312327559209885 0.943359673141637 48
-3.546926368204855 3.335448470114365 0.946412617067662 47
-3.548091450564282 3.359958540668017 0.949847178984440 45
-3.554811634646618 3.389936801597938 0.954808212864230 50
-3.556521143744202 3.416543959571339 0.958624392771761 50
-3.553039850199498 3.437127858247197 0.960914100716280 50
-3.560512172215357 3.466075921827926 0.965875134596070 52
-3.570823172604322 3.500472934046586 0.971981022448119 52
-3.570541643134433 3.525952468826112 0.975415584364897 50
-3.572133036487055 3.552237987730787 0.979231764272428 48
-3.568658770483677 3.572397819312264 0.981521472216947 48
-3.572758792588197 3.601558502712447 0.986100888105984 47
-3.575209161112989 3.626746152234711 0.989917068013514 47
-3.584501629475630 3.661650767027814 0.996022955865564 50
-3.585382912638563 3.688217872134986 0.999839135773095 50
-3.582031598348415 3.710598119252309 1.002510461708366 52
-3.586066175759604 3.742129149114212 1.007471495588157 50
-3.593282893101328 3.775957148991584 1.013195765449453 30
nan nan nan 0
-5.799632411025560 6.180303011196531 1.647444866081088 4
-5.772670054321051 6.194764651207402 1.645918394118075 4
-5.753677947638097 6.217759217270774 1.646681630099582 4
-5.736773679258314 6.238694508163714 1.647444866081088 4
-5.714961621055806 6.258681577064155 1.647444866081088 4
-5.704727759819018 6.289231921746250 1.650497810007113 4
-5.666972349892174 6.291601785353340 1.645918394118075 3
-5.644976036081260 6.311344879815401 1.645918394118075 4
-5.622910940018792 6.331011072531839 1.645918394118075 4
-3.984554537544930 4.519589958810064 1.171185613621232 1
-4.069621595991648 4.648691299594227 1.200951816899973 1
-5.547462315784152 6.381625388327187 1.643628686173557 3
-5.517455503926922 6.392033723372601 1.641338978229038 4
-5.493672628461134 6.407314280199301 1.640575742247532 4
-5.481454939664962 6.438410711224469 1.643628686173557 4
-5.448807622733466 6.445510897081056 1.640575742247532 4
-5.428799831097146 6.467498956507505 1.641338978229038 4
-5.403677049809388 6.483393368854945 1.640575742247532 4
-5.383516241382544 6.505241212846487 1.641338978229038 4
-5.361914483738128 6.523057828014815 1.641338978229038 4
-5.344077557226175 6.547818581399212 1.642865450192051 4
-5.313772556003046 6.557281178736949 1.640575742247532 4
-5.300696733281743 6.588026630468614 1.643628686173557 4
-5.275217195446203 6.603421586831630 1.642865450192051 4
-5.249694797936624 6.618718973230543 1.642102214210545 4
-5.231417700090282 6.643173156645060 1.643628686173557 4
-5.208196826722588 6.661393739759282 1.643628686173557 4
-5.193302839786823 6.687931986359152 1.645918394118075 4
-5.169925961155622 6.706019251096203 1.645918394118075 4
-5.145272530311606 6.720008861190397 1.645155158136569 3
-5.143169294420479 6.766061585642820 1.652024281970125 3
-3.999845305419215 5.302195512746779 1.291013662717702 1
-3.995435124550038 5.334982356126226 1.295593078606739 8
-3.996467975724086 5.373407440324245 1.301698966458789 3
-4.019667800342947 5.444183291420191 1.315437214125900 1
-4.042421701489718 5.515185887990749 1.329175461793011 1
-4.027765804363924 5.535612973166984 1.330701933756024 1
-4.026810883892330 5.575103133884946 1.336807821608073 1
-4.032492941370768 5.624226919639516 1.345203417404641 1
-4.044711169007047 5.683054929804872 1.355888721145727 1
-4.040708205132685 5.719587603148469 1.361231373016271 1
-4.046763768173039 5.772941857597880 1.370390204794345 1
-4.046771183662842 5.816040210382273 1.377259328627900 1
-4.068840133283582 5.891517445547645 1.391760812276518 1
-4.074890637997282 5.944548295645689 1.400919644054592 1
-4.097131947657707 6.019702387554881 1.415421127703209 1
-4.117855313183842 6.095787475398759 1.429922611351827 1
-4.095485476359992 6.110839225382152 1.429922611351827 1
-4.028462929426166 6.056441886843171 1.413894655740197 1
-4.028895152872914 6.098553117732799 1.420763779573753 1
-4.046334491172675 6.171685759935305 1.434502027240864 1
-4.030130150000665 6.191651566708989 1.436028499203876 1
nan nan nan 0
-4.075802351560617 6.358474609123934 1.468084410427136 1
-1.210700822713974 1.903350630295312 0.438479071375300 1
-1.203716561872960 1.907775286200814 0.438479071375300 1
-4.099557144842068 6.547940749360304 1.501666793613408 1
-4.099467677456493 6.598899328037890 1.510062389409976 3
-4.103192832729557 6.656621652715420 1.519984457169556 3
nan nan nan 0
-4.075972425777675 6.716994672564080 1.527235198993865 28
-4.039494883261078 6.706929264806515 1.521892547123321 31
-4.006995399057050 6.705821144281893 1.518457985206544 42
-3.981561009308931 6.716389698143312 1.517694749225037 42
-3.951125457122121 6.718400974113178 1.515023423289766 37
-3.945648394653082 6.760291357500927 1.521510929132568 55
-3.930879868856403 6.789314303075660 1.524945491049346 30
-3.949200770493476 6.876199665440656 1.541355064651729 33
-3.951413389826130 6.936001106185284 1.551658750402062 30
-3.959051464542362 7.006156630478169 1.564252144096914 28
-3.969127177617988 7.081587094105013 1.577990391764025 30
-3.972631682785505 7.140342809435807 1.588294077514359 30
-3.986571788867117 7.224642310654879 1.603940415135236 31
-3.989603802633351 7.290180794914268 1.615388954857828 28
-4.000654848880529 7.371357392090897 1.630272056497199 27
-3.985134630791447 7.404293772503840 1.634469854395483 10
-3.946322749473662 7.393911367806617 1.629127202524940 12
-3.914978965468550 7.397230256397735 1.626837494580421 12
-3.884572462914103 7.402158956030945 1.624929404626656 10
-3.861429118226837 7.420898306164282 1.626074258598915 10
-3.835501823904588 7.434331998528621 1.626074258598915 10
-3.800989745883288 7.427785248505459 1.621876460700631 10
-3.776815268700932 7.444509576920351 1.622639696682137 10
-3.756098836076500 7.468171259659516 1.624929404626656 12
-3.731759169670530 7.484750960309392 1.625692640608162 12
-3.704739916534194 7.495971600172761 1.625311022617409 12
-3.674232959634267 7.500042604982742 1.623402932663643 12
-3.648888093634866 7.514588439374829 1.623784550654396 10
-3.620932288406069 7.523741567524491 1.623021314672890 10
-3.597183077669412 7.541651156236104 1.624166168645149 10
-3.571674899308996 7.555936666130973 1.624547786635902 10
-3.545277998426279 7.568358104821081 1.624547786635902 12
-3.520491100248385 7.584248841700165 1.625311022617409 12
-3.490397324023373 7.585180573497770 1.623021314672890 10
-3.479373580071017 7.631258645342077 1.630272056497199 9
-3.505248595599774 7.759653836310336 1.655077225896149 10
-3.433230711176864 7.671490961265767 1.633706618413977 4
-3.405635584730902 7.681633661338394 1.633325000423224 22
-3.373274854733230 7.680891963066753 1.630653674487952 19
-3.348009307331171 7.696220666161941 1.631416910469458 22
-3.321124086552539 7.707860511578739 1.631416910469458 22
-3.289574962575627 7.708572184496222 1.629127202524940 24
-3.258825658307833 7.710966041193386 1.627219112571174 22
-3.237028574800411 7.730784860796406 1.629127202524940 22
-3.209271440586190 7.740223552423936 1.628745584534186 22
-3.180742260373439 7.747746520497129 1.627982348552680 22
-3.147764129148282 7.744252153515342 1.624929404626656 22
-3.119246655754116 7.751550074481576 1.624166168645149 22
-3.096528954783631 7.773334272607448 1.626455876589668 22
-3.069376089389887 7.784095817973249 1.626455876589668 24
-3.041472031603382 7.792933618766195 1.626074258598915 22
-3.013543682529536 7.801671481917114 1.625692640608162 24
-2.983488376961221 7.804807836274116 1.624166168645149 22
-2.957615541115550 7.818847149096306 1.624929404626656 22
-2.933745592617451 7.838316947152940 1.626837494580421 22
-2.907059132002765 7.841972369328509 1.625692640608162 22
-2.879667829254569 7.852072123422500 1.625692640608162 22
-2.850199985946704 7.860728218165781 1.625311022617409 7
-2.818104159399326 7.857693386836083 1.622639696682137 16
-2.828803432294189 7.970605827742468 1.644010304164310 22
-2.838023694976204 8.086022304050996 1.665762529637236 22
-2.852411837186754 8.214084350827983 1.690186081045434 22
-2.865162895002684 8.344686368941558 1.714991250444385 21
-2.878490686125802 8.489494774414331 1.742467745778607 22
-2.893761846669896 8.633516998194256 1.769944241112830 24
-2.894478765800516 8.736747548169767 1.789025140650484 4
-3.174308434040956 9.694616485128833 1.982887079953054 26
-3.187591560678821 9.851334468171581 2.012653283231795 19
-3.206395303073095 10.028831579580439 2.046617284408820 21
-3.234664595752319 10.227914440491340 2.085160701474882 19
nan nan nan 0
-3.202548137719436 10.377812531214351 2.111110724846092 67
-3.156573156790904 10.357002800610770 2.104623219003289 61
-3.125607526046138 10.378692572351488 2.106912926947808 61
nan nan nan 0
nan nan nan 0
-3.024948931760539 10.439139429804516 2.112637196809104 71
-2.974455562423358 10.400557830868255 2.102715129049524 63
-2.933333591257385 10.393872191962911 2.099280567132746 56
-2.898614248998593 10.409722017704325 2.100425421105006 63
-2.857579584622350 10.402738497820206 2.096990859188228 54
-2.821249841410013 10.412649934998536 2.096990859188228 61
-2.783872114980452 10.418641072574646 2.096227623206721 63
-2.749307349471453 10.427815439959002 2.096227623206721 63
-2.711409086717377 10.431648429396157 2.095082769234462 60
-2.673517582199077 10.435343968681616 2.093937915262203 56
-2.632749708385443 10.427481033435059 2.090503353345425 54
-2.595387053886542 10.432797145655519 2.089740117363919 29
nan nan nan 0
-0.536650938581687 2.223342075378463 0.444584959227349 3
-0.529340737007468 2.227111835832048 0.444966577218102 17
nan nan nan 0
-0.513339155440298 2.228839860896394 0.444584959227349 24
-0.502857551508833 2.215125224982663 0.441532015301325 28
-0.495122257927059 2.216867030105586 0.441532015301325 19
nan nan nan 0
-0.481731435772213 2.231867626398110 0.443821723245843 1
-0.475533818189440 2.237210719129289 0.444584959227349 1
-0.466918642778223 2.235013480720247 0.443821723245843 1
-0.459909769271732 2.244483011553582 0.445348195208856 1
-0.446648941948101 2.219129524045002 0.440005543338312 1
-0.437387159654043 2.208966572860549 0.437715835393794 2
-0.428924549461219 2.206625513478972 0.436952599412288 4
-0.423386206601433 2.223685059061018 0.440005543338312 7
nan nan nan 0
nan nan nan 0
-0.398729269142611 2.218265446529557 0.438097453384547 40
-0.387237289525617 2.198375393459851 0.433899655486263 37
-0.380896475704879 2.207452369209839 0.435426127449275 37
-0.373959691318874 2.208638095479479 0.435426127449275 37
-0.367210792700233 2.215740510959058 0.436570981421535 37
-0.357203906629422 2.205443525596577 0.434281273477016 38
-0.350731778443658 2.214433297393315 0.435807745440028 36
-0.340897376164072 2.202063082889101 0.433136419504757 29
nan nan nan 0
-0.329531067173861 2.231580018671325 0.438479071375300 2
-0.322859459115243 2.240489431238490 0.440005543338312 1
-0.312850866955275 2.226049586355205 0.436952599412288 1
-0.304012821060815 2.219347717723650 0.435426127449275 1
-0.298731467842979 2.235911360963631 0.438479071375300 1
-0.290924860712186 2.236940506447467 0.438479071375300 2
-0.278679491384261 2.202883245717944 0.431609947541744 3
-0.271467497285060 2.207739755516432 0.432373183523251 4
nan nan nan 0
nan nan nan 0
-0.250525462262138 2.229971262592456 0.436189363430781 43
-0.240191433409759 2.207411363679090 0.431609947541744 39
-0.231662439543589 2.200426485511123 0.430083475578732 39
-0.224775066799436 2.209034409539227 0.431609947541744 41
-0.218025195056155 2.215629097138621 0.432754801514004 42
-0.209918996309598 2.212467695198543 0.431991565532497 42
-0.201301677506781 2.203411409307638 0.430083475578732 36
-0.192406568898237 2.190410593149596 0.427412149643460 34
-0.185914183335019 2.204763053134960 0.430083475578732 13
nan nan nan 0
-0.172333254885394 2.229496225617232 0.434662891467769 1
-0.163682998819764 2.218336607926610 0.432373183523251 1
-0.157039628419233 2.234561845785540 0.435426127449275 1
-0.148977002581038 2.231178617565803 0.434662891467769 1
-0.142714674408120 2.243391394201072 0.436952599412288 1
-0.132998080940048 2.212520422867096 0.430846711560238 2
-0.124224185964322 2.201232210893121 0.428557003615720 3
-0.117058571462432 2.211454972199387 0.430465093569485 5
nan nan nan 0
nan nan nan 0
-0.095199838495032 2.234119325714586 0.434662891467769 42
-0.086326442106078 2.206973465464749 0.429320239597226 37
-0.078167356237465 2.205313021616928 0.428938621606473 38
-0.070907764257689 2.219308212518259 0.431609947541744 39
-0.063991793287154 2.221482463964251 0.431991565532497 37
-0.056187303207339 2.219729677267324 0.431609947541744 37
-0.047410901708637 2.208152245265565 0.429320239597226 35
-0.039526266558096 2.198489601655904 0.427412149643460 31
-0.032050939066875 2.212355518748976 0.430083475578732 11
nan nan nan 0
-0.017624151562947 2.243930531124245 0.436189363430781 1
-0.009722734618394 2.228272494676121 0.433136419504757 1
-0.001944552847122 2.228292857954902 0.433136419504757 1
0.005926168694675 2.263624527689201 0.440005543338312 1
0.014992132473737 2.202493975225806 0.348848857039715 44
0.023043890023211 2.200448964217312 0.348535988109634 38
0.031025007969594 2.194424186291335 0.347597381319393 34
0.038754428429989 2.198252659169534 0.348223119179554 33
nan nan nan 0
0.054440309963526 2.211751984453130 0.350413201690117 2
0.061995067535517 2.219457718962693 0.351664677410439 1
0.069369754581948 2.207381382384261 0.349787463829956 1
0.077901806727679 2.230815868650554 0.353541890990922 1
0.085081689628915 2.214738984397328 0.351038939550278 1
0.092919815293492 2.226286616045924 0.352916153130761 2
0.100003631656637 2.202250976336094 0.349161725969795 3
0.107402161549588 2.203880278784228 0.349474594899876 4
0.116099364538769 2.215307844122635 0.351351808480359 9
nan nan nan 0
0.132577379874118 2.238129308095125 0.355106235641324 49
0.139539294087782 2.217913567359556 0.351977546340519 50
0.146363995677446 2.203615735766275 0.349787463829956 42
0.152571032984204 2.187353548777300 0.347284512389313 42
0.161310424857849 2.196630014766771 0.348848857039715 44
0.167977755408954 2.198111362694248 0.349161725969795 43
0.176279140930458 2.205388004990075 0.350413201690117 42
0.184031891749474 2.200790083803205 0.349787463829956 43
0.191198526088647 2.194230525392356 0.348848857039715 44
0.198856655130584 2.193549749983428 0.348848857039715 39
0.208565086331136 2.210505951004317 0.351664677410439 43
0.215894241460839 2.209802170142355 0.351664677410439 38
0.224191402427859 2.210961334340684 0.351977546340519 36
0.229875603207487 2.194488713702935 0.349474594899876 32
1.565738402739092 14.436333659242919 2.299899505021474 30
1.613932829425638 14.456864867649331 2.303966801112520 31
1.669398998570606 14.472438413992428 2.307408359343405 11
1.725737259095052 14.515562013825587 2.315230082595417 35
1.775195245161326 14.499645950664314 2.313665737945015 33
1.827090989129242 14.483242926381092 2.312101393294613 37
1.877635810283689 14.476776951761932 2.312101393294613 31
1.928237935707121 14.490052040208315 2.315230082595417 31
1.979875533698185 14.491061729943960 2.316481558315739 31
2.028740425129127 14.490285437692629 2.317420165105980 31
2.084084856481017 14.498394636796831 2.319923116546624 33
2.136408322387187 14.502757210511954 2.321800330127107 34
2.190555858583890 14.518650629493038 2.325554757288072 36
2.240496489542650 14.523020343624324 2.327431970868555 36
2.294944314786081 14.522515622219659 2.328683446588877 38
2.343701384641613 14.534736047914549 2.331812135889682 36
2.384142173730430 14.464096007786370 2.321800330127107 16
2.407386851949945 14.294006401757912 2.295832208930428 15
2.428133989552427 14.116145583883506 2.268612612013428 16
2.447327452800766 13.936370550370233 2.241080146166348 15
2.471533454451369 13.777592863039629 2.216989238550152 15
2.065702028676027 11.299548804627765 1.819332828417885 11
2.103117148918435 11.270541298126894 1.815891270187000 16
2.136792107619546 11.244098688385552 1.812762580886195 16
2.168967734190795 11.189648696485746 1.805253726564264 15
2.200709357240664 11.155262289174932 1.800873561543138 15
2.236907450712045 11.123882050515746 1.797119134382172 16
2.265160641780142 11.093970718089334 1.793364707221207 16
2.296235325518891 11.049249221880673 1.787420197549678 16
2.342443671122429 11.067814829870873 1.791800362570805 56
2.375658390570101 11.034466081072015 1.787733066479759 44
2.413081261693265 11.030386920294536 1.788358804339919 48
2.455429860499749 11.039250774575189 1.791174624710644 48
2.495941426537891 11.048388963023013 1.793990445081368 49
2.537303726116331 11.043017094859563 1.794616182941528 46
2.578529979938024 11.045634912435483 1.796493396522011 48
2.622995830973907 11.061553871988794 1.800560692613057 45
2.665372108745863 11.059547388205605 1.801812168333379 48
2.710588013997999 11.068890871212579 1.804940857634184 45
2.745348526836873 11.060320699086326 1.804940857634184 42
2.757880809029466 10.947231849926782 1.788045935409839 20
2.773082118643556 10.847588345875543 1.773341095696057 20
2.787621670873199 10.747973201456301 1.758636255982275 22
2.796276889515839 10.643635451445466 1.742992809478252 20
nan nan nan 0
2.817442932235477 10.427434321813145 1.710767309679965 17
2.841541816748468 10.365600379951079 1.702319848567792 20
2.853171644592979 10.274276498312286 1.688866484574332 23
2.866175047344342 10.176285751719352 1.674474513790631 24
2.871318082434358 10.059845942964232 1.656953853706125 22
2.885655819150212 9.971456234733804 1.644126227572826 24
2.892544073747442 9.878927020141193 1.630359994649286 26
2.902857310931479 9.787335101043229 1.616906630655826 22
2.910847031655513 9.683933483068589 1.601576053081884 23
2.915870739270033 9.579225417499163 1.585932606577861 24
2.925523585052202 9.497765133903254 1.574043587234803 26
2.935135721128185 9.412063005076918 1.561528830031585 24
2.948942796382605 9.341480359507619 1.551517024269010 26
2.961504883157941 9.262873378971832 1.540253742786113 27
2.967062615681608 9.169784038725133 1.526487509862573 26
2.985529966659988 9.118070481507159 1.519604393400803 27
2.991198963969326 9.039257689451048 1.508028242987826 27
3.003603555501295 8.966422123840472 1.497703568295170 26
3.011776396483657 8.892798973093280 1.487066024672435 27
3.017192305631692 8.807481203524754 1.474551267469216 27
3.027223230243549 8.737167028240780 1.464539461706641 27
3.038106717610674 8.670619365011300 1.455153393804228 27
3.046583582318967 8.598516991224415 1.444828719111573 28
3.055415924705633 8.524069051761911 1.434191175488837 26
3.055827876045500 8.446236942118759 1.422615025075859 31
3.069114065558228 8.386748354252278 1.414480432893767 31
3.078577210139840 8.318013663701898 1.404781496061273 31
3.088962893721698 8.253023118266880 1.395708297088940 30
3.095356866523334 8.187302397354710 1.386322229186526 31
3.101362613287706 8.113166927088738 1.375684685563790 30
3.104060459977511 8.040182271633073 1.365047141941055 27
3.112724283752304 7.979609566846846 1.356599680828882 31
3.121069058410757 7.923295397357450 1.348777957576871 33
3.123874275925024 7.849949410076258 1.338140413954135 33
3.131363314293766 7.789510924638183 1.329692952841962 35
3.134752795928150 7.719965192827224 1.319681147079388 34
3.146849389732243 7.676627697969651 1.314049506337939 34
3.152286182144632 7.610292053414876 1.304663438435525 35
3.159011799339401 7.551860790723515 1.296528846253433 37
3.162293475799199 7.486197128118966 1.287142778351020 35
3.168508497820116 7.432058323218113 1.279633924029088 35
3.180100043798157 7.384109688038914 1.273376545427479 35
3.184097699556351 7.326419906026938 1.265241953245387 37
3.189810214917982 7.270037768678256 1.257420229993376 38
3.191968180398819 7.206481029286236 1.248347031021042 35
3.203397087441086 7.164638431001256 1.243028259209674 38
3.209268389098827 7.114361924501156 1.236145142747904 39
3.215669594076812 7.059407760746841 1.228636288425973 41
3.219266112009890 7.005626987625248 1.221127434104042 38
3.225799388638874 6.952567061315165 1.213931448712191 37
3.232927941006536 6.907838191747575 1.207986939040663 38
3.241347097782332 6.860221501909762 1.201729560439054 39
3.247082606774065 6.813770234403137 1.195472181837444 42
3.251482608277879 6.759100530436336 1.187963327515513 42
3.254047477661409 6.707403931246400 1.180767342123663 40
3.259203909583886 6.658745156469415 1.174197094591973 42
3.268713841289749 6.616646982444691 1.168878322780605 45
3.271525030792886 6.564533046599324 1.161682337388754 45
3.278448803564436 6.521305101679281 1.156050696647306 45
3.283324003066032 6.474585609648537 1.149793318045697 42
3.286791271879472 6.428485722959698 1.143535939444088 46
3.292216788080812 6.381285614617711 1.137278560842478 43
3.293306445277256 6.331778170215586 1.130395444380708 45
3.302541625772912 6.295753521278131 1.126015279359582 45
3.306023222527578 6.249265292480267 1.119757900757973 47
3.314953892767441 6.210965708457841 1.115064866806766 48
3.314802394647695 6.163985785469992 1.108494619275076 48
3.321231978333649 6.124593602753211 1.103488716393789 50
3.324583981868765 6.080032406311009 1.097544206722260 48
3.327665577765109 6.035522836006501 1.091599697050731 47
3.332396752065300 5.994519300017789 1.086280925239363 42
3.337921454455023 5.952974146319232 1.080962153427995 48
3.343126927258427 5.913772441948464 1.075956250546708 48
3.347168007505421 5.870590733408131 1.070324609805260 48
3.343950769985639 5.822361156622613 1.063441493343489 49
3.353387417724631 5.789553708915015 1.059687066182524 50
3.362610442095541 5.761341112184828 1.056558376881719 49
3.371680403744552 5.728549126825864 1.052803949720754 49
3.376551667352219 5.693549894870253 1.048423784699627 54
3.369039450331514 5.635949470008356 1.039976323587455 52
3.376416762345638 5.601569988289252 1.035909027496409 52
3.378513156435350 5.561049952722984 1.030590255685041 47
3.386623191923689 5.532967565920468 1.027461566384236 45
3.392433604544153 5.499256532140561 1.023394270293190 49
3.390839963024623 5.456099002929300 1.017449760621662 52
3.395082249393307 5.418525291298199 1.012756726670455 49
3.401319675157024 5.386598075499442 1.009002299509489 49
3.406315232926899 5.353027010284420 1.004935003418443 52
3.406991503244632 5.315093102732806 0.999929100537156 50
3.414656247915001 5.284319756279275 0.996487542306271 52
3.417074487192676 5.249789414911166 0.992107377285144 52
3.427795236276956 5.226267077720310 0.989917294774581 50
3.427868728020580 5.190746876832236 0.985224260823374 52
3.428458049727455 5.152436644153167 0.980218357942087 54
3.428821896937380 5.114185865470382 0.975212455060799 52
3.432058659813878 5.078670497306642 0.970832290039673 52
3.439759853324867 5.051964000851961 0.968016469668949 50
3.447075834125732 5.023035313939435 0.964887780368144 48
3.453856406911302 4.999179468821652 0.962384828927500 48
3.446193961124667 4.949201698808900 0.955188843535650 52
3.450111409021404 4.919955728485305 0.951747285304765 50
3.453299745533803 4.886306120735791 0.947679989213719 52
3.461169472347121 4.861348604138451 0.945177037773075 52
3.464301898788969 4.829975136817520 0.941422610612109 54
3.460316182417988 4.789032384355396 0.935790969870661 56
3.468874503468552 4.765744754212740 0.933600887360098 52
3.478140170261733 4.741848887155857 0.931410804849535 56
3.482932219782483 4.713791623136671 0.928282115548730 56
3.482036435019386 4.680028146390658 0.923901950527603 60
3.480206959507838 4.641946312982649 0.918896047646316 58
3.485253566235486 4.618375826226080 0.916393096205673 60
3.488203972069114 4.588883147188511 0.912951537974787 60
3.494189154477006 4.561953433374415 0.910135717604063 62
3.496403222203872 4.530350258434451 0.906381290443098 60
3.499286341208672 4.503132891749932 0.903252601142293 56
3.497938591862416 4.469112881897389 0.898872436121167 58
3.505849428485717 4.450343129890937 0.897308091470764 60
3.512767987442930 4.427246188821137 0.895118008960201 62
3.513702784083252 4.393670148318030 0.891050712869155 64
3.507473768898287 4.353074870387938 0.885419072127707 64
3.511666504952244 4.331907306244718 0.883228989617143 66
3.518773201320800 4.308297761509877 0.881038907106580 64
3.522496454583243 4.282258625698900 0.878223086735856 66
3.523042294147318 4.251067813746388 0.874468659574891 62
nan nan nan 0
3.542465709359234 4.214272001408063 0.871965708134247 8
3.544205425194679 4.189549185368429 0.869149887763523 38
3.545997404211653 4.162115530969488 0.866021198462718 44
3.568386764102847 4.155962851994317 0.867585543113120 82
3.545402409996402 4.100149059015977 0.858512344140787 58
3.549314887600697 4.075830681991733 0.856009392700143 68
3.550496004618208 4.048564761364105 0.852880703399339 70
3.557968941218645 4.031466317840981 0.851629227679017 70
3.560908287978604 4.005112228662135 0.848813407308293 66
3.556419518160859 3.972054469687553 0.844433242287166 66
3.559680432589651 3.947879507177675 0.841930290846522 66
3.564101003624299 3.927899548529739 0.840053077266040 66
3.571809711685360 3.907519933255206 0.838488732615637 64
3.577400663951269 3.886307972327812 0.836611519035155 70
3.572143858475931 3.853515178087231 0.832231354014028 74
3.576816687225779 3.832982962060759 0.830354140433545 76
3.577999834810481 3.807518550305931 0.827538320062821 76
3.589215039268934 3.791509855358501 0.826912582202660 80
3.593544712481452 3.768322332006409 0.824722499692097 78
3.588237293486135 3.737859569651837 0.820655203601051 80
3.593673910370636 3.716162863624159 0.818777990020568 80
3.595687221488280 3.694944870297029 0.816587907510005 78
3.599525857817373 3.671866797902708 0.814397824999442 76
3.605382370162089 3.652250771530902 0.812833480349040 76
3.597850878793965 3.618001392047467 0.808140446397833 74
3.605636221302463 3.601862383512982 0.807201839607591 76
3.606967915751234 3.578124949484587 0.804698888166948 76
3.613806945006734 3.559967362161333 0.803447412446626 76
3.617739076714891 3.539042976441481 0.801570198866143 76
3.617931851664569 3.513373956689692 0.798754378495419 80
3.620220300819571 3.491125075945577 0.796564295984856 80
3.615481630166906 3.464700406208784 0.793122737753971 76
3.619568755744157 3.443256676885434 0.791245524173488 76
