# This PCD file was generated using the MATLAB® pcwrite function
# from Computer Vision Toolbox®.
# .PCD v.7 - Point Cloud Data file format
VERSION .7
FIELDS x y z intensity
SIZE 8 8 8 1
TYPE F F F U
COUNT 1 1 1 1
WIDTH 822
HEIGHT 1
VIEWPOINT 0 0 0 1 0 0 0
POINTS 822
DATA ascii
4.869839072535417 -0.721720913777037 0.604471943289531 72
4.879065829602016 -0.740502642200555 0.605934375410393 72
4.888088052356890 -0.760210701454973 0.607396807531255 74
4.891285947639487 -0.778204398180166 0.608128023591686 70
4.890637825062957 -0.794738612957507 0.608371762278496 72
4.891750407712663 -0.812455767985702 0.608859239652117 72
4.900627322846117 -0.831518670589144 0.610321671772979 72
4.909430615437341 -0.850653420865014 0.611784103893840 72
4.914098611746597 -0.870025959430791 0.612759058641082 72
4.909078242793345 -0.886821170786038 0.612515319954271 70
4.915713898969584 -0.905750199717070 0.613734013388323 72
4.920326140504561 -0.924369815366776 0.614708968135564 72
4.936731124421913 -0.944411023691299 0.617146355003667 72
4.939249704412487 -0.962777058636680 0.617877571064098 70
4.931793740357849 -0.980099982032445 0.617390093690477 68
4.932233815523530 -0.998096636695133 0.617877571064098 68
4.940385368127442 -1.017710359015336 0.619340003184959 68
4.940688513991756 -1.035763921969842 0.619827480558580 66
4.956641600527432 -1.056279545710936 0.622264867426683 66
4.950984258425869 -1.073154503424563 0.622021128739873 70
4.952833155414166 -1.092576428299586 0.622752344800304 66
4.960611069997582 -1.112464707076452 0.624214776921165 66
4.970640940080030 -1.131126700239433 0.625920947728837 70
4.974398522311231 -1.150259478850990 0.626895902476079 70
4.974218032972010 -1.168524306612589 0.627383379849699 70
4.975901484928168 -1.187262593824256 0.628114595910130 68
4.984809795725588 -1.209636764590603 0.629820766717802 70
4.988266846841226 -1.228929055106962 0.630795721465043 70
4.990159319089771 -1.246036796118482 0.631526937525474 66
4.993476510845527 -1.265398629644198 0.632501892272715 68
4.992425693998157 -1.285552856875886 0.632989369646336 68
5.003272999343056 -1.306985618072697 0.634939279140818 66
5.006587240738472 -1.325602235971745 0.635914233888060 68
5.019184167389235 -1.347703463181047 0.638107882069352 66
5.018279973872278 -1.366258420186441 0.638595359442973 64
5.017307353080125 -1.384823473376504 0.639082836816593 66
5.023912970847592 -1.405537697748150 0.640545268937455 64
5.024705546092747 -1.424690368063721 0.641276484997886 64
5.046665504177463 -1.449014701714681 0.644688826613230 66
5.033952440275113 -1.464404069994182 0.643713871865989 66
5.036167451212445 -1.485090475421749 0.644688826613230 66
5.046169328496743 -1.507205842976912 0.646638736107712 68
5.056344845635996 -1.528526601275295 0.648588645602195 66
5.064265540626304 -1.550234558308978 0.650294816409867 74
5.068029671777547 -1.571725609791102 0.651513509843918 72
5.060618505330902 -1.588812143923691 0.651269771157108 74
5.068284683378613 -1.610675879078399 0.652975941964780 72
5.077749471480866 -1.633220264987597 0.654925851459263 72
5.083920476736896 -1.652846940098819 0.656388283580124 70
5.085662687108178 -1.673064435654346 0.657363238327366 72
5.090796765779079 -1.695456583192770 0.658825670448227 70
5.094253436209352 -1.716385552658972 0.660044363882279 74
5.099504873048337 -1.737999657249082 0.661506796003140 68
5.104667349780832 -1.759671290509169 0.662969228124002 70
5.108176803780192 -1.779855091342656 0.664187921558054 68
5.101932829325547 -1.797675112445683 0.664187921558054 68
5.110268459495580 -1.821694996953468 0.666137831052536 59
3.899340705757843 -1.405386780261845 0.508926378059896 13
3.866679964407084 -1.408120726023389 0.505270297757741 9
3.826346511990705 -1.408579674285913 0.500639262708346 9
3.789532165121007 -1.410820323215361 0.496495705032571 9
3.752999744719439 -1.412155189463599 0.492352147356796 9
3.718360033393432 -1.413957914852646 0.488452328367831 9
3.689312812195175 -1.417672275103203 0.485283725439297 10
3.651280133713634 -1.416971421606454 0.480896429076712 10
3.613045840362015 -1.416664675172913 0.476509132714127 10
3.573013018954825 -1.415377344499919 0.471878097664731 10
3.551463649631111 -1.421203174518799 0.469684449483438 9
3.529917346567370 -1.426895888669058 0.467490801302146 9
3.484483276968066 -1.422700775155138 0.462128550192319 9
3.448297884105076 -1.421989960972325 0.457984992516544 11
3.421322912737718 -1.424859925196298 0.455060128274821 11
3.383391094694231 -1.422941565532464 0.450672831912235 10
3.360131971951990 -1.426983572740808 0.448235445044132 10
3.315240942024886 -1.420914082700417 0.442873193934306 10
3.284755241676409 -1.421440523398164 0.439460852318962 10
3.270678153441400 -1.428924150113309 0.438242158884910 10
3.245691277904902 -1.431520420663482 0.435561033329997 12
3.220476050391068 -1.434521869579610 0.432879907775084 11
3.186481005216343 -1.432729872244064 0.428980088786119 11
3.147115120050717 -1.428257085310942 0.424349053736724 11
3.118648345606315 -1.428487145305831 0.421180450808190 9
3.090218597525707 -1.428536003934968 0.418011847879656 11
3.076218458817418 -1.435117925481480 0.416793154445604 10
3.046296209138159 -1.433478186012705 0.413380812830260 10
3.019755430154725 -1.433885300963550 0.410455948588537 11
2.991458968524961 -1.433266987583543 0.407287345660003 11
2.973927197049338 -1.437652578774049 0.405581174852331 11
2.951048843423001 -1.439322691386992 0.403143787984228 11
2.921070721262166 -1.437344987179059 0.399731446368884 10
2.887586526446676 -1.433410400077167 0.395831627379919 10
2.864815611304798 -1.434592794055669 0.393394240511816 10
2.850931168309743 -1.440108959014663 0.392175547077765 10
2.831737039538861 -1.442842087921061 0.390225637583282 11
2.803730872090179 -1.440921944038857 0.387057034654748 11
2.768723311286963 -1.435169848723149 0.382913476978973 9
2.754900786092168 -1.440227326154919 0.381694783544922 10
2.732296921884242 -1.440576744824037 0.379257396676819 10
2.718488062189386 -1.445445742525232 0.378038703242767 10
2.692432328608436 -1.443669547941651 0.375113839001044 9
2.657691456841628 -1.437008410067414 0.370970281325269 10
2.647430538094689 -1.443425987196948 0.370239065264838 10
2.626719965264063 -1.444051520911549 0.368045417083545 10
2.611246076808369 -1.447437335945411 0.366582984962684 10
2.583902845462334 -1.443502709433686 0.363414382034150 11
2.561552239815517 -1.442771545206309 0.360976995166047 11
2.549342901533149 -1.448228331892744 0.360002040418806 12
2.530491353607196 -1.449226062717535 0.358052130924323 11
2.510197811175212 -1.448679291296388 0.355858482743031 10
2.484535609659562 -1.445453792158422 0.352933618501307 11
2.462351452267100 -1.444075384849775 0.350496231633204 11
2.448751543436595 -1.447610817805128 0.349277538199153 11
2.436862351819717 -1.452085117561777 0.348302583451912 11
2.406252763237712 -1.445250991100687 0.344646503149757 13
2.389306140876753 -1.446445330325946 0.342940332342085 12
2.372380644743039 -1.447539057659762 0.341234161534413 13
2.365622399030139 -1.454771527331046 0.340990422847603 14
2.345344204657579 -1.453608374753948 0.338796774666310 14
2.327040403346457 -1.452967016355524 0.336846865171828 15
2.301792736643889 -1.448394385113485 0.333922000930104 14
2.283058609262518 -1.448314163840207 0.331972091435622 14
2.267953945752257 -1.449859394922973 0.330509659314760 15
2.264802546316530 -1.458446987692243 0.330753398001570 15
2.244710876270512 -1.456618540576394 0.328559749820278 14
2.219422096137178 -1.451795950012362 0.325634885578554 14
2.201081334956538 -1.450794607504246 0.323684976084072 15
2.186335370950983 -1.451497942778599 0.322222543963210 15
2.179605411453195 -1.458017112148116 0.321978805276400 15
2.166017322509155 -1.460447160715222 0.320760111842348 15
2.141201902456191 -1.454613064804739 0.317835247600625 15
2.126536551632407 -1.454979909207258 0.316372815479763 13
2.116541583229921 -1.459014087380442 0.315641599419332 5
2.107919303510689 -1.464496530977320 0.315154122045711 5
2.143451692384890 -1.500303578891713 0.321247589215969 1
2.946110849795043 -2.077482617512656 0.442629455247496 3
2.932367915085039 -2.083155230117931 0.441654500500254 3
2.931535608234459 -2.097999557435780 0.442629455247496 3
2.933855798312709 -2.115185228361929 0.444091887368357 3
2.929666904009765 -2.127746465158727 0.444579364741978 3
2.931834406089827 -2.144992711110992 0.446041796862840 3
2.911545170060514 -2.145791955961924 0.444091887368357 3
2.913600460225747 -2.163041771801185 0.445554319489219 3
2.909970993401538 -2.174560997767833 0.446041796862840 3
2.896018668404333 -2.179930131518633 0.445066842115599 3
2.897115378624457 -2.198233402118058 0.446529274236460 3
2.883115674835404 -2.203511142223450 0.445554319489219 3
2.885619336436014 -2.219820053285074 0.447016751610081 3
2.868438133430665 -2.222584086837954 0.445554319489219 3
2.872790293544503 -2.242855299469449 0.447504228983702 3
2.883668888148015 -2.267594182278502 0.450429093225425 4
2.857062329015241 -2.262856339488591 0.447504228983702 6
2.824316920390240 -2.253008890490805 0.443604409994737 6
2.813340261227222 -2.260367217640179 0.443116932621116 6
2.799260397583228 -2.265178954944612 0.442141977873875 6
2.754405812677503 -2.244838010238206 0.436292249390428 6
2.534807651554981 -2.080633092388895 0.402656310610607 25
2.508001457341201 -2.072588300021336 0.399487707682073 28
2.517535061532296 -2.095298891215374 0.402168833236987 51
2.483979555298490 -2.082829193398618 0.398025275561212 30
2.466077421906388 -2.082521864560105 0.396319104753540 33
2.448207829936512 -2.082115043363403 0.394612933945868 25
2.439417302317744 -2.089356877841491 0.394369195259057 23
2.423455028410255 -2.089656909818766 0.392906763138196 25
2.416146000043302 -2.098103615638422 0.392906763138196 31
2.401702525291932 -2.099571726819019 0.391688069704144 33
2.379459461969539 -2.094825189545731 0.389250682836041 34
2.370280423350723 -2.102215096531275 0.389006944149231 33
2.358486288924984 -2.106509051471169 0.388275728088800 34
2.348167018697794 -2.112073844567745 0.387788250715179 33
2.323125037526346 -2.104265723184787 0.384863386473456 36
2.305499407393766 -2.102997629715792 0.383157215665784 33
2.299606453851209 -2.112375408303975 0.383400954352594 33
2.287847195114829 -2.116345690855022 0.382669738292163 28
2.281898344954497 -2.125671943749034 0.382913476978973 30
2.257091087158723 -2.117326729264681 0.379988612737250 28
2.239585264445537 -2.115650310757005 0.378282441929578 26
2.233995704544025 -2.124433365080395 0.378526180616388 21
2.229433877015448 -2.134964457566659 0.379013657990009 22
2.220538959586665 -2.141355663403168 0.378769919303198 19
2.203082008256540 -2.139413142538587 0.377063748495526 17
2.187085059788792 -2.138762864925954 0.375601316374664 14
2.190921340993170 -2.157526998539160 0.377551225869147 15
2.176329120550529 -2.158172695609587 0.376332532435095 13
2.172996388539138 -2.169964429424216 0.377063748495526 10
2.168588564541530 -2.179973098362549 0.377551225869147 8
2.160965826576934 -2.187529603962280 0.377551225869147 8
2.157103273372303 -2.199687219159645 0.378282441929578 7
2.149411790256371 -2.207203513506332 0.378282441929578 8
2.127894541738432 -2.200422985206622 0.375845055061475 7
2.100951116157902 -2.187792101976332 0.372432713446131 8
2.051207999208059 -2.150220140933705 0.364876814155012 23
2.061437307073599 -2.176101743937757 0.368045417083545 20
2.061607043826930 -2.192319398769147 0.369507849204407 21
2.066135447245420 -2.212560125844538 0.371701497385700 18
2.066498204818835 -2.228492282058826 0.373163929506562 15
2.068119492788858 -2.245914105979379 0.374870100314234 13
2.068699389265432 -2.261548288647362 0.376332532435095 9
2.070135480527411 -2.279041428125446 0.378038703242767 7
2.080781549619390 -2.306890383858796 0.381451044858112 7
2.063445386974687 -2.303788828344582 0.379744874050440 8
2.058029591501505 -2.313944156507386 0.380232351424060 7
2.039427368626878 -2.309210774750422 0.378282441929578 6
2.037898605392287 -2.323777993354332 0.379501135363629 5
2.029774690875428 -2.330877429754571 0.379501135363629 5
2.025930081773935 -2.342099626978747 0.380232351424060 5
2.004808040315683 -2.334098473981283 0.377794964555957 4
2.003967055230381 -2.350494388127145 0.379257396676819 4
1.980358700947445 -2.339294175731803 0.376332532435095 4
1.944483574723790 -2.312423118290172 0.370970281325269 4
1.866424837252460 -2.235388522252518 0.357564653550703 10
1.851008825290900 -2.232720657983872 0.356102221429841 12
1.860866359145100 -2.260625062313627 0.359514563045185 7
1.886029014609821 -2.306740349333015 0.365851768902253 5
1.906741784585940 -2.348756884059400 0.371457758698890 4
1.926355098548981 -2.389063982923460 0.376820009808716 4
1.908078984744316 -2.383376385690581 0.374870100314234 4
1.904270399035498 -2.396570621104878 0.375845055061475 4
1.900811215846076 -2.409437154590574 0.376820009808716 4
1.894414984408103 -2.419513779040367 0.377307487182337 4
1.878647849973644 -2.416708246846367 0.375845055061475 4
1.860497792120353 -2.410679237401096 0.373895145566992 4
1.854486312158395 -2.420310345731981 0.374382622940613 4
1.849278327209041 -2.429283449168773 0.374870100314234 4
1.840787279062811 -2.435723835152690 0.374870100314234 4
1.779855045154567 -2.372268534889373 0.364145598094581 4
1.711088381990210 -2.297274289348806 0.351714925067256 5
1.651919432334704 -2.234887343039218 0.341234161534413 20
1.655851785292298 -2.256644573689646 0.343671548402516 20
1.650697476187632 -2.265331853633062 0.344159025776136 30
1.632308958805410 -2.256604339163162 0.341965377594844 22
1.620554509730300 -2.257733892201358 0.341234161534413 19
1.610359869502002 -2.260143532594981 0.340746684160792 17
1.600563038896971 -2.262230233798819 0.340259206787172 13
1.593797502063895 -2.269427960200197 0.340502945473982 12
1.577524559264606 -2.263853575298702 0.338796774666310 9
1.583163237346515 -2.288937850929227 0.341721638908034 4
1.602127994040298 -2.333727498077277 0.347571367391481 3
1.616327852719720 -2.372115087875514 0.352446141127686 4
1.624444534795045 -2.400196803104766 0.355858482743031 6
1.620483939502739 -2.412443926747845 0.356833437490272 20
1.605446291291703 -2.408175586272822 0.355371005369410 14
1.598125765778531 -2.415420499740079 0.355614744056220 16
1.588595067087090 -2.419324939186404 0.355371005369410 16
1.577972823711936 -2.421529155138100 0.354883527995789 17
1.555497009417776 -2.405352711179234 0.351714925067256 15
1.544947014287084 -2.407426427335223 0.351227447693635 15
1.537178983067214 -2.414747353070454 0.351471186380445 16
1.526620270849674 -2.416741811746277 0.350983709006825 18
1.524500695960038 -2.432147887284316 0.352446141127686 18
1.507614343467929 -2.423969344480390 0.350496231633204 17
1.495396622323963 -2.422198963534186 0.349521276885963 18
1.484858634707179 -2.424018614147488 0.349033799512342 17
1.425869314994801 -2.346065348907928 0.337090603858638 16
1.399220078004729 -2.320429202214458 0.332703307496053 18
1.393150002964115 -2.328706286786510 0.333190784869673 8
1.414394943435716 -2.383059927106333 0.340259206787172 8
1.420754792798852 -2.413889412140779 0.343915287089326 11
1.427334124145721 -2.444548106014440 0.347571367391481 20
1.437134278749757 -2.480184300379887 0.351958663754066 41
1.400769237664317 -2.436996528167698 0.345133980523378 22
1.392810719408939 -2.443838892188420 0.345377719210188 21
1.380364031978597 -2.441773510186821 0.344402764462947 22
1.374201563880278 -2.449800151627661 0.344890241836567 21
1.367572029158191 -2.458051459212625 0.345377719210188 21
1.352697796429354 -2.450407831026049 0.343671548402516 22
1.341276171862334 -2.449891050485189 0.342940332342085 22
1.333234762882701 -2.456535316341522 0.343184071028895 22
1.323710928094896 -2.459426215054083 0.342940332342085 24
1.314612896589641 -2.462051172664221 0.342696593655275 24
1.299508537998434 -2.454344533922527 0.340990422847603 22
1.280783061687620 -2.439532243742520 0.338309297292689 21
1.228262248366962 -2.359469826346354 0.326609840325795 19
1.207774109577843 -2.341021885028924 0.323441237397261 34
1.196883089302457 -2.339921603958258 0.322710021336831 35
1.185524550134418 -2.336796543979638 0.321735066589589 33
1.177360385349827 -2.340920560364127 0.321735066589589 33
1.165638899422312 -2.337909944117700 0.320760111842348 29
1.162748192560411 -2.352642189721883 0.322222543963210 28
1.151908895331470 -2.351338602358141 0.321491327902779 24
1.141092898483847 -2.349988073944338 0.320760111842348 19
1.144074050403167 -2.377210288329784 0.323928714770882 5
1.172517051239629 -2.458233118598184 0.334409478303725 5
1.174976165314454 -2.483437245489077 0.337334342545448 10
1.175569920191231 -2.507294327396381 0.340015468100361 12
1.159282856965162 -2.495180088797853 0.337821819919069 10
1.155546795461934 -2.510030637226438 0.339284252039931 10
1.146778113479327 -2.514048956317777 0.339284252039931 10
1.138812983840273 -2.519845576885591 0.339527990726741 11
1.133254967804773 -2.531052532459440 0.340502945473982 11
1.111535010983268 -2.505959348153704 0.336603126485017 14
1.106773497973105 -2.518911042925285 0.337821819919069 15
1.096389736501459 -2.519118712374169 0.337334342545448 15
1.085232199515407 -2.517461699485309 0.336603126485017 17
1.070981767674328 -2.508454919345217 0.334896955677345 16
1.063765271625605 -2.515834797626900 0.335384433050966 18
1.052676793546328 -2.514039536818566 0.334653216990535 18
1.039332932181008 -2.506696422976256 0.333190784869673 20
1.029822700233249 -2.508472736651210 0.332947046182863 20
1.015516220054645 -2.497163130896742 0.330997136688381 17
0.967500195766460 -2.403095738765773 0.318078986287435 22
0.958370984808499 -2.404614274859866 0.317835247600625 18
0.989310785446169 -2.507660476480813 0.330997136688381 18
0.990660166847917 -2.536986151842672 0.334409478303725 26
0.981798397105835 -2.540428744968267 0.334409478303725 32
0.967251634346650 -2.529007495236206 0.332459568809242 26
0.955607248372297 -2.524942125574068 0.331484614062001 26
0.945395398779455 -2.524544401564514 0.330997136688381 24
0.935887660587663 -2.525967631714660 0.330753398001570 24
0.929354627816450 -2.536836667138566 0.331728352748811 24
0.915759399015317 -2.527001005647191 0.330022181941139 21
0.910725244885590 -2.539366655449495 0.331240875375191 25
0.899201184185723 -2.535046676499422 0.330265920627950 22
0.896260483871043 -2.555028723939990 0.332459568809242 25
0.881481450571030 -2.541262456727161 0.330265920627950 23
0.869827889122262 -2.534783494813929 0.329047227193898 21
0.864801097769594 -2.549083448299829 0.330509659314760 26
0.852741901771424 -2.542676288628303 0.329290965880708 24
0.842611870745597 -2.541868899299131 0.328803488507088 22
0.834525214365789 -2.548713229529184 0.329290965880708 23
0.792622967092595 -2.449621856296062 0.316129076792953 14
nan nan nan 0
0.768153432456002 -2.430353893161369 0.312960473864419 39
0.759073594755151 -2.431125566745854 0.312716735177608 39
0.749997736683423 -2.431863487417376 0.312472996490798 33
0.741504379716570 -2.434466652333772 0.312472996490798 40
0.730143165647735 -2.427535317248044 0.311254303056747 40
0.723360413744764 -2.435778057970017 0.311985519117178 42
0.714853554660358 -2.438288217428497 0.311985519117178 33
0.709648944617130 -2.452209770241622 0.313447951238039 40
0.696178308340253 -2.437493081390214 0.311254303056747 38
0.685511624775356 -2.432265721155993 0.310279348309505 28
0.714245228313910 -2.568520505395034 0.327341056386226 23
0.706850514061353 -2.576741146258756 0.328072272446657 29
0.699925556056705 -2.586857579816624 0.329047227193898 25
0.686797302102143 -2.573941104722302 0.327097317699416 26
0.675283020170470 -2.566723975209715 0.325878624265364 24
0.670258674403062 -2.582399177397718 0.327584795073036 25
0.661732329911924 -2.586646240985072 0.327828533759847 23
0.653184496279376 -2.590865221865457 0.328072272446657 24
0.641743928263674 -2.583496752160404 0.326853579012606 22
0.631778275074986 -2.581864709632216 0.326366101638985 25
0.624622415859170 -2.591773653390705 0.327341056386226 23
0.616488343365764 -2.597801103808181 0.327828533759847 22
0.609223012737426 -2.607669378333209 0.328803488507088 23
0.597447673239311 -2.598172455889886 0.327341056386226 24
0.587060404684640 -2.594433674899758 0.326609840325795 26
0.579294595647390 -2.602280077981168 0.327341056386226 24
0.569782836375111 -2.602347183626001 0.327097317699416 25
0.560767556763204 -2.600243403892064 0.326609840325795 24
0.549629061247710 -2.592475360838832 0.325391146891744 21
0.522726236859597 -2.510905161839323 0.314910383358901 22
0.510378152298583 -2.495211090308020 0.312716735177608 22
0.521606612982018 -2.596233753773154 0.325147408204933 26
0.517151450861158 -2.621409346310470 0.328072272446657 26
0.506110809042294 -2.613454148604334 0.326853579012606 24
0.496985068219601 -2.615204882959155 0.326853579012606 24
0.487853271790690 -2.616923751867786 0.326853579012606 22
0.479786482994591 -2.624468923948736 0.327584795073036 24
0.470379779303134 -2.622137717202623 0.327097317699416 19
0.459849208804847 -2.615943216039684 0.326122362952175 23
0.450931240601143 -2.621523798948290 0.326609840325795 20
0.442766722094606 -2.628954442855476 0.327341056386226 22
0.433910110846560 -2.632442633324055 0.327584795073036 23
0.424086506095547 -2.630021669131553 0.327097317699416 18
0.416131822587681 -2.633301756167303 0.327341056386226 20
0.406331336435177 -2.630814623442224 0.326853579012606 22
0.398034073050174 -2.638105585212246 0.327584795073036 22
0.389401546662964 -2.643406707169401 0.328072272446657 18
0.380375787297554 -2.652742389059626 0.329047227193898 23
0.368364680788358 -2.634394327763034 0.326609840325795 21
0.357399468679817 -2.615870379091174 0.324172453457692 16
0.337792028221416 -2.538392164710141 0.314422905985280 16
0.325939683187161 -2.519926260584829 0.311985519117178 29
0.318628114126815 -2.532866065695671 0.313447951238039 33
0.308538436821828 -2.520116087670893 0.311741780430367 32
0.299505355573810 -2.519206524279527 0.311498041743557 33
0.291632760273881 -2.532119680215293 0.312960473864419 33
0.282351750052511 -2.529176568708944 0.312472996490798 30
0.274161622144028 -2.536067531865727 0.313204212551229 33
0.264688029373870 -2.531086105522733 0.312472996490798 33
0.257492690145241 -2.543799925541350 0.313935428611660 19
0.259999867006403 -2.661248704272125 0.328316011133467 19
0.251544608721192 -2.676018435895036 0.330022181941139 20
0.243096423177861 -2.686765269151513 0.331240875375191 21
0.233618513123528 -2.675650307624429 0.329778443254329 21
0.223945801323933 -2.672493168907777 0.329290965880708 20
0.215100189367706 -2.685168541869279 0.330753398001570 20
0.206029098447519 -2.689861612253236 0.331240875375191 21
0.197688219264797 -2.698449186140064 0.332215830122432 21
0.187715159741891 -2.691201683501954 0.331240875375191 22
0.177588414841070 -2.687910070040412 0.330753398001570 21
0.168452682639412 -2.692476030755383 0.331240875375191 21
0.159875332467068 -2.698964691984022 0.331972091435622 22
0.150674143359092 -2.703470350795469 0.332459568809242 22
0.140822169941859 -2.696050271618286 0.331484614062001 20
0.131603590809323 -2.700490886004608 0.331972091435622 28
0.122355723922008 -2.704899944901972 0.332459568809242 40
0.111671402519511 -2.675560084132834 0.328803488507088 12
0.101807668064318 -2.650128510094850 0.325634885578554 6
0.090339453869514 -2.586983482447696 0.317835247600625 12
0.081229120391468 -2.599201958625936 0.319297679721486 19
0.071935394718950 -2.591532353985109 0.318322724974245 17
0.063923169762701 -2.615570648021272 0.321247589215969 18
0.054959025482831 -2.623716474331755 0.322222543963210 17
0.045557698565522 -2.609998802804444 0.320516373155538 16
0.036225095263864 -2.594262737407993 0.318566463661056 14
0.027397869710951 -2.616208199505198 0.321247589215969 13
0.018265431939631 -2.616287897082235 0.321247589215969 11
0.009188205731847 -2.632216357692266 0.323197498710451 4
0.000000000000000 -2.614366563423242 0.321003850529158 7
-0.009111983814010 -2.610380475388634 0.320516373155538 7
-0.018320865723968 -2.624228072794169 0.322222543963210 6
-0.027063900902583 -2.628122863832039 0.322710021336831 7
-0.036319706172394 -2.633967092599009 0.323441237397261 7
-0.045685236989590 -2.643748246038910 0.324659930831313 8
-0.057057127107340 -2.746775204778449 0.337334342545448 19
-0.067030044391837 -2.762435369283150 0.339284252039931 20
-0.075735963046368 -2.728450985244659 0.335140694364156 6
-0.084267461535881 -2.696424016620341 0.331240875375191 5
-0.091886980282771 -2.644532168151518 0.324903669518123 5
-0.099372846335242 -2.598571536274441 0.319297679721486 20
-0.108774071838871 -2.606142290993731 0.320272634468728 20
-0.119844022844430 -2.649374139581405 0.325634885578554 41
-0.127835206050465 -2.623164054467031 0.322466282650020 22
-0.136473249987772 -2.612789895583015 0.321247589215969 28
-0.146034616950673 -2.620225662574494 0.322222543963210 30
-0.155190943060834 -2.627653544137659 0.323197498710451 30
-0.179608489436723 -2.870785701666336 0.353177357188117 15
-0.204809041434248 -3.099911024033341 0.381451044858112 17
-0.215215157098441 -3.093236306542932 0.380719828797681 16
-0.225327167049021 -3.090525782556037 0.380476090110870 16
-0.236416258481211 -3.093679057849284 0.380963567484491 16
-0.248004604342735 -3.102728869183383 0.382182260918543 16
-0.259989145646071 -3.115691787730778 0.383888431726215 19
-0.270373049263136 -3.102852360177326 0.382425999605353 17
-0.281023154089968 -3.099912693335817 0.382182260918543 16
-0.292243885723265 -3.114825835726798 0.384132170413025 20
-0.303691871808418 -3.119713996626883 0.384863386473456 19
-0.314579855691027 -3.118634907799500 0.384863386473456 19
-0.324845645517021 -3.111594732969319 0.384132170413025 19
-0.336557202555197 -3.118336375627077 0.385107125160266 20
-0.347879975109205 -3.121088323872741 0.385594602533887 20
-0.360906897254826 -3.133596707057710 0.387300773341559 19
-0.372545024347792 -3.138231568899025 0.388031989401990 18
-0.380784810075625 -3.119244732761399 0.385838341220697 19
-0.392165532342689 -3.121835767161656 0.386325818594317 18
-0.403568977118747 -3.124385308307819 0.386813295967938 18
-0.415778495419683 -3.132796740605314 0.388031989401990 16
-0.428855742443224 -3.147061624866373 0.389981898896472 16
-0.439563525806404 -3.143579500069472 0.389738160209662 15
-0.449970468380882 -3.138095996539425 0.389250682836041 13
-0.462942046891752 -3.150254180190653 0.390956853643713 11
-0.473976377807963 -3.152627749829408 0.391444331017334 10
-0.487394046402883 -3.166649967246642 0.393394240511816 10
-0.498444748221248 -3.164929352213536 0.393394240511816 9
-0.510436382923955 -3.169049671978845 0.394125456572247 7
-0.522140336750870 -3.171166047544708 0.394612933945868 7
-0.535841336298680 -3.184984768176474 0.396562843440350 7
-0.549981312928289 -3.200702706566056 0.398756491621643 9
-0.558406487462900 -3.183121538857715 0.396806582127160 9
-0.571263375563083 -3.190923069545033 0.398025275561212 10
-0.582754938528918 -3.190862340169200 0.398269014248022 10
-0.593864764777740 -3.194870804487919 0.399000230308453 10
-0.606861260237463 -3.202530284618927 0.400218923742504 11
-0.616711380987666 -3.190539435389271 0.399000230308453 13
-0.628995285899100 -3.194210340772904 0.399731446368884 12
-0.639974201043427 -3.194053361066231 0.399975185055694 15
-0.651516411210330 -3.193745008450425 0.400218923742504 15
-0.665641146500397 -3.202997026604522 0.401681355863366 18
-0.675996256662838 -3.196769702815670 0.401193878489746 5
-0.690764694545246 -3.213918159878287 0.403631265357848 23
-0.699435751411130 -3.199851537059297 0.402168833236987 18
-0.713055299376893 -3.211079743814914 0.403875004044659 20
-0.723822624295438 -3.206634779669130 0.403631265357848 18
-0.737907943302374 -3.211570593006408 0.404606220105090 21
-0.748662647703756 -3.207042129993688 0.404362481418279 18
-0.759648845182298 -3.208537695411946 0.404849958791900 20
-0.774092694232284 -3.219377053751427 0.406556129599572 20
-0.786738157560741 -3.222440703799398 0.407287345660003 20
-0.798936876577154 -3.223528433401051 0.407774823033623 21
-0.811230938901467 -3.222503563545063 0.408018561720434 20
-0.824439925065305 -3.227345521236566 0.408993516467675 20
-0.836133051924805 -3.228437212516554 0.409480993841295 21
-0.852441338429290 -3.244698292934279 0.411918380709398 20
-0.863816589790770 -3.239634067038716 0.411674642022588 21
-0.874601631436839 -3.234682766218091 0.411430903335778 21
-0.888952526648988 -3.247236318617444 0.413380812830260 22
-0.902405387691704 -3.251764723060425 0.414355767577501 27
-0.914855473823376 -3.250346244851584 0.414599506264312 33
-0.919661717281776 -3.224225537223149 0.411674642022588 16
-0.924840297341046 -3.202086709226930 0.409237255154485 11
-0.933782103988188 -3.191218086614824 0.408262300407244 11
-0.938146298646164 -3.165100169849173 0.405337436165521 11
-0.941198078545915 -3.135188414643099 0.401925094550176 11
-0.946939574704419 -3.114790556785874 0.399731446368884 10
-0.949046028808343 -3.083007612640329 0.396075366066729 10
-0.954486125586888 -3.062619373735128 0.393881717885437 10
-0.960990032868707 -3.046017153103583 0.392175547077765 10
-0.968671571144579 -3.035249163382891 0.391200592330523 10
-0.969498566351882 -3.001625333183786 0.387300773341559 10
-0.973186352270108 -2.977467388619341 0.384619647786645 11
-0.979833899993904 -2.962744011302020 0.383157215665784 11
-0.983871046774218 -2.940480602772218 0.380719828797681 10
-0.989674120813007 -2.923866238672698 0.379013657990009 9
-0.992158217518365 -2.897857016939887 0.376088793748285 7
-0.992524215656878 -2.866238921529371 0.372432713446131 2
-0.993337787728122 -2.836527455295518 0.369020371830787 3
-0.999919877415298 -2.823686626401436 0.367801678396735 12
-1.011777786888725 -2.825785769597826 0.368532894457166 20
-1.018257031761360 -2.812903996761229 0.367314201023115 58
-1.021247733361544 -2.790690591519597 0.364876814155012 27
-1.035115035383646 -2.798279546464352 0.366339246275873 32
-1.043900967305058 -2.795013833078039 0.366339246275873 32
-1.057156186263915 -2.800638848334453 0.367557939709925 32
-1.066218289188895 -2.795076892954084 0.367314201023115 32
-1.077396393294092 -2.795042564449677 0.367801678396735 31
-1.090028115041676 -2.798663699565506 0.368776633143976 32
-1.102698209651727 -2.802230615363910 0.369751587891217 31
-1.118339802503482 -2.813121768245680 0.371701497385700 30
-1.127412844468564 -2.807358796383123 0.371457758698890 30
-1.138697882491360 -2.807085298627859 0.371945236072510 30
-1.150747344481031 -2.808604068072867 0.372676452132941 28
-1.164606893357615 -2.815778911639415 0.374138884253803 27
-1.180549501863355 -2.826350313189634 0.376088793748285 30
-1.186550666372666 -2.813066996006490 0.374870100314234 28
-1.199474350705616 -2.816213375542624 0.375845055061475 30
-1.214787139498237 -2.824774553403226 0.377551225869147 28
-1.225430642306186 -2.822337808564597 0.377794964555957 26
-1.241650586798246 -2.832587801099197 0.379744874050440 24
-1.248317426585416 -2.820975177259491 0.378769919303198 25
-1.263014610906765 -2.827475455519740 0.380232351424060 26
-1.277772326802900 -2.833907368470483 0.381694783544922 26
-1.291768017168216 -2.838463785037457 0.382913476978973 27
-1.308296717322053 -2.848368633656206 0.384863386473456 31
-1.314892000477708 -2.836580458768359 0.383888431726215 31
-1.329832305215796 -2.842761817623269 0.385350863847076 31
-1.346875756282300 -2.854493816482298 0.387544512028369 32
-1.360245006348454 -2.856944197327013 0.388519466775610 32
-1.376226545945530 -2.864703901977927 0.390225637583282 31
-1.387949534231133 -2.863455142346088 0.390713114956903 31
-1.397936402112660 -2.858592849191536 0.390713114956903 31
-1.414054298748762 -2.866157278369449 0.392419285764575 28
-1.427588453321114 -2.868312427103499 0.393394240511816 27
nan nan nan 0
-1.135460888586387 -2.241993569263086 0.308573177501833 6
-1.137861600422120 -2.227409699259738 0.307110745380972 8
-1.145241700813428 -2.223624167162588 0.307110745380972 6
-1.152081543772204 -2.217851382915911 0.306867006694161 6
-1.166264812583477 -2.226125104538388 0.308573177501833 19
-1.157335988064061 -2.190447525152639 0.304185881139248 14
-1.154706816567646 -2.167123219877505 0.301504755584335 18
-1.161324870204676 -2.161330688613374 0.301261016897525 18
-1.164133839894892 -2.148536945677736 0.300042323463473 18
-1.171626541123252 -2.144460270619674 0.300042323463473 18
-1.169526534555509 -2.122970321668357 0.297604936595370 19
-1.169218705956417 -2.104992095612612 0.295655027100888 19
-1.173649501516379 -2.095701981024909 0.294923811040457 19
-1.180957716327933 -2.091592411997827 0.294923811040457 20
-1.184942018547609 -2.082488686581331 0.294192594980026 20
-1.184302109217936 -2.064564536865376 0.292242685485544 20
-1.183194371002227 -2.046876934413998 0.290292775991061 20
-1.190332096445118 -2.042734345033630 0.290292775991061 21
-1.193788221644863 -2.031511968995685 0.289317821243820 22
-1.200872248808109 -2.027332493784205 0.289317821243820 22
-1.198432417763379 -2.007997870839752 0.287124173062527 23
-1.194178159092012 -1.985091100446575 0.284443047507614 22
-1.200416344035802 -1.979003626534700 0.284199308820804 19
-1.207317042498336 -1.974801334757207 0.284199308820804 22
-1.212120349171391 -1.967194920647547 0.283711831447183 24
-1.206412954642347 -1.942715229239397 0.280786967205460 20
-1.210405158640935 -1.935549417590629 0.280299489831839 23
-1.215037322990936 -1.927953718693243 0.279812012458219 20
-1.222431158718088 -1.923274109397627 0.279812012458219 23
-1.224854482759297 -1.912308916287204 0.278837057710977 20
-1.222579478346754 -1.894892325774189 0.276887148216495 22
-1.225940347605971 -1.885620366151884 0.276155932156064 21
-1.229251422804948 -1.876348092784399 0.275424716095633 22
-1.236887233574670 -1.873702450886441 0.275668454782444 23
-1.239022544601980 -1.862762092970126 0.274693500035202 23
-1.236675955494355 -1.845233729076368 0.272743590540720 24
-1.237554933611727 -1.832680009315453 0.271524897106669 24
-1.243944641071738 -1.828348971121246 0.271524897106669 24
-1.245195230683050 -1.817881064914175 0.270549942359427 25
-1.256043263310312 -1.820058666896206 0.271524897106669 24
-1.246836842658607 -1.792627553446903 0.268112555491324 24
-1.246251666129699 -1.778510190124157 0.266650123370463 24
-1.254741907664203 -1.777392541736319 0.267137600744083 26
-1.256336555732720 -1.766531036977728 0.266162645996842 24
-1.262187675988901 -1.762355161838186 0.266162645996842 24
-1.259039946128934 -1.745059896943823 0.264212736502360 27
-1.256652194792615 -1.729633361232976 0.262506565694688 24
-1.263854492742680 -1.726838179657137 0.262750304381498 24
-1.267518600515450 -1.719220406730094 0.262262827007877 27
-1.271144954683574 -1.711598133472445 0.261775349634257 25
-1.265515791998666 -1.691034476665183 0.259337962766154 26
-1.266631153729799 -1.680266073123104 0.258363008018913 27
-1.272196152453887 -1.676056534180439 0.258363008018913 26
-1.275627536703332 -1.668451557072784 0.257875530645292 25
-1.279021358995283 -1.660843085082657 0.257388053271671 26
-1.279944282725544 -1.650094226407478 0.256413098524430 27
-1.280807809189238 -1.639359237819316 0.255438143777189 27
-1.288977633205133 -1.637998393630307 0.255925621150810 27
-1.289471287834426 -1.627491307365727 0.254950666403569 27
-1.295144436769393 -1.622980297355969 0.254950666403569 26
-1.294583822919714 -1.610713137503874 0.253731972969517 27
-1.292704435210152 -1.596926836754900 0.252269540848655 27
-1.298270874535084 -1.592404727163894 0.252269540848655 28
-1.298782571187566 -1.581726545195323 0.251294586101414 27
-1.309079870157067 -1.583530856128028 0.252269540848655 28
-1.305708438252203 -1.568272767050011 0.250563370040983 28
-1.306344765854514 -1.557393006172711 0.249588415293742 29
-1.313054151696893 -1.554339953018319 0.249832153980552 30
-1.311501836414251 -1.542645221791822 0.248613460546501 30
-1.320751855620018 -1.542581527221192 0.249344676606932 30
-1.313431072421476 -1.522698791052123 0.246907289738829 32
-1.313531022478794 -1.512110293461228 0.245932334991588 32
-1.318801269934148 -1.507516002245305 0.245932334991588 32
-1.320118712489086 -1.498434848837635 0.245201118931157 33
-1.327976056728277 -1.496787462000603 0.245688596304777 32
-1.325257058507190 -1.483261038929049 0.244226164183916 32
-1.325115447872946 -1.472723293397668 0.243251209436674 32
-1.328915224498105 -1.466617774083249 0.243007470749864 34
-1.330012457595069 -1.457570951636861 0.242276254689433 33
-1.339121680209987 -1.457304530546493 0.243007470749864 33
-1.335606902403979 -1.444345594573736 0.241545038629002 33
-1.329817945905394 -1.428052661789113 0.239595129134520 34
-1.337759351074863 -1.426064606062439 0.240082606508141 34
-1.345455448915699 -1.424272329901897 0.240570083881761 34
-1.344699290324552 -1.414048794312155 0.239595129134520 34
-1.345508146890885 -1.405045144357003 0.238863913074089 35
-1.332490943700684 -1.381763947181663 0.235695310145555 33
-1.346986684442524 -1.387072964474382 0.237401480953227 35
-1.351820266345152 -1.382362652974876 0.237401480953227 35
-1.356637376744442 -1.377635497822690 0.237401480953227 35
-1.353051275485803 -1.364434319101627 0.235939048832365 35
-1.355000412943628 -1.356893672481453 0.235451571458745 35
-1.360899926479396 -1.353792861143745 0.235695310145555 36
-1.357143931186411 -1.340663756836950 0.234232878024693 35
-1.358981289567954 -1.333138005713846 0.233745400651073 35
-1.357938828356340 -1.322845439934667 0.232770445903832 35
-1.359694643661223 -1.315336876442599 0.232282968530211 34
-1.364277742465404 -1.310582642928058 0.232282968530211 35
-1.368844217975831 -1.305812440377610 0.232282968530211 34
-1.370511760585965 -1.298295946375492 0.231795491156591 35
-1.365911255270760 -1.285820020313847 0.230333059035729 34
-1.367490984133648 -1.278333061804941 0.229845581662108 35
-1.376309485841714 -1.277603435943304 0.230576797722539 36
-1.373462879234819 -1.266064208230054 0.229358104288488 35
-1.380802431587212 -1.263942899625315 0.229845581662108 35
-1.377861326755760 -1.252439184236110 0.228626888228057 37
-1.375073394579711 -1.240731506998819 0.227408194794005 38
-1.380874430634039 -1.237248723581304 0.227651933480815 37
-1.387719754555147 -1.235544532597832 0.228139410854436 37
-1.392024155362795 -1.230692959312552 0.228139410854436 37
-1.387360879444155 -1.217968528944883 0.226676978733574 37
-1.387114885798309 -1.209205030558009 0.225945762673143 38
-1.391327348270954 -1.204355729127971 0.225945762673143 38
-1.401544531463505 -1.204667553447905 0.226920717420385 40
-1.399701363441296 -1.194613161450446 0.225945762673143 38
-1.397805153633475 -1.184586378470082 0.224970807925902 41
-1.395856072547331 -1.174587452040717 0.223995853178661 39
-1.398424305842437 -1.168435044018076 0.223752114491851 42
-1.400966613941134 -1.162279033867215 0.223508375805040 40
-1.406547376412096 -1.158643805994178 0.223752114491851 42
-1.402700025734342 -1.147687899351208 0.222533421057799 41
-1.405156916163238 -1.141532889613796 0.222289682370989 42
-1.407587946835840 -1.135374727046479 0.222045943684179 41
-1.409993125730843 -1.129213517121573 0.221802204997368 42
-1.417033756499600 -1.126755798765659 0.222289682370989 42
-1.405377552765441 -1.109502096593392 0.219852295502886 44
-1.412559773829605 -1.106792333659384 0.220339772876507 45
-1.416414594257917 -1.101854836928127 0.220339772876507 44
-1.420060688641837 -1.097151778498673 0.220339772876507 44
-1.423881811554494 -1.092188157422072 0.220339772876507 43
-1.418209795636208 -1.079995224649277 0.218877340755645 45
-1.421971042276164 -1.075038168918562 0.218877340755645 45
-1.425528178833108 -1.070316832090620 0.218877340755645 45
-1.426072399671592 -1.062961607240303 0.218389863382024 43
-1.429774139989159 -1.057977209674311 0.218389863382024 44
-1.423859406779504 -1.045928716161839 0.216927431261163 45
-1.429105639193690 -1.042121756306922 0.217171169947973 48
-1.434342623802358 -1.038290900974817 0.217414908634783 44
-1.433122014622583 -1.029802635739709 0.216683692574352 48
-1.443172343378575 -1.029404828312616 0.217658647321593 46
-1.427315543117726 -1.010595736572621 0.214733783079870 48
-1.430834484861083 -1.005607318657002 0.214733783079870 46
-1.430731266107163 -0.998834603262532 0.214246305706249 49
-1.437472407502003 -0.996095617937657 0.214733783079870 49
-1.447482968409046 -0.995571592900667 0.215708737827111 48
-1.434554435403987 -0.979320633256988 0.213271350959008 54
-1.437964162561884 -0.974307137430399 0.213271350959008 57
-1.444650897422724 -0.971497271167335 0.213758828332629 51
-1.448033254439570 -0.966448579773911 0.213758828332629 49
-1.451397967628181 -0.961388112509535 0.213758828332629 51
-1.446451124861797 -0.950863730743442 0.212540134898577 58
-1.448098875947888 -0.944724237877890 0.212296396211767 55
-1.447891416014744 -0.937758726609054 0.211808918838146 57
-1.454495813442926 -0.934845532070673 0.212296396211767 57
-1.461097474383036 -0.931897630372301 0.212783873585388 57
-1.457632034147910 -0.922545302370805 0.211808918838146 57
-1.450757061954800 -0.911117063123049 0.210346486717285 55
-1.458982828544049 -0.909197068519080 0.211077702777715 58
-1.460459237772926 -0.903054734990874 0.210833964090905 55
-1.460218537214258 -0.895875091238475 0.210346486717285 55
-1.459790418787190 -0.888962951654577 0.209859009343664 55
-1.456088373252537 -0.879755705303546 0.208884054596423 55
-1.466114274983971 -0.878494239528934 0.209859009343664 55
-1.469171860074568 -0.873371193572544 0.209859009343664 55
-1.472059985315730 -0.868494442025709 0.209859009343664 55
-1.468229747407653 -0.859339781787516 0.208884054596423 57
-1.467787038102874 -0.852215980476201 0.208396577222802 55
-1.474193242385442 -0.849068746239346 0.208884054596423 55
-1.477148064116409 -0.843917678694138 0.208884054596423 54
-1.476630780176243 -0.836798903941633 0.208396577222802 51
-1.470746138449655 -0.827032720455632 0.207177883788751 50
-1.471890385730974 -0.820926885894020 0.206934145101940 51
-1.478363762199797 -0.817447770285092 0.207421622475561 54
-1.488170381332486 -0.816100350892305 0.208396577222802 55
-1.490868485155076 -0.811160912873166 0.208396577222802 54
-1.481461834103695 -0.799353432462802 0.206690406415130 48
-1.477241926152080 -0.790431176361085 0.205715451667889 48
-1.481745591071333 -0.786200238647320 0.205959190354699 51
-1.491508043336321 -0.784720342704322 0.206934145101940 51
-1.494238141733728 -0.779509227257167 0.206934145101940 54
-1.491391043681327 -0.772073252277156 0.206202929041510 48
-1.490544899289690 -0.765049708284738 0.205715451667889 49
-1.493338934943502 -0.759581449435728 0.205715451667889 50
-1.492436291757788 -0.752576503494053 0.205227974294268 50
-1.502025494845153 -0.751174922963935 0.206202929041510 50
-1.495745771661460 -0.741518745352597 0.204984235607458 51
-1.491326518639179 -0.732530837662446 0.204009280860217 51
-1.504583220140409 -0.732534442082102 0.205471712981079 51
-1.501767620304702 -0.724689825735838 0.204740496920648 49
-1.507869748946786 -0.721156223559243 0.205227974294268 50
-1.499615079826376 -0.710787039963526 0.203765542173407 49
-1.494900034050624 -0.702172247989619 0.202790587426165 50
-1.507894976648948 -0.702502272880871 0.204253019547027 49
-1.512140293215765 -0.698066479287746 0.204496758233837 51
-1.521788611261706 -0.696086774618503 0.205471712981079 51
-1.507936440884428 -0.683395726226070 0.203278064799786 49
-1.506690897160335 -0.676501676321306 0.202790587426165 48
-1.509043149417638 -0.671238222129110 0.202790587426165 48
-1.515010132283611 -0.667567470334833 0.203278064799786 50
-1.517331147658516 -0.662275031023022 0.203278064799786 48
-1.515989469376994 -0.655399043628698 0.202790587426165 49
-1.514618320349901 -0.648540511705716 0.202303110052545 48
-1.516760630302426 -0.643514290461103 0.202303110052545 50
-1.522657909104755 -0.639753756919086 0.202790587426165 49
-1.528658343790047 -0.635693083439110 0.203278064799786 48
-1.523525721010276 -0.627329920443133 0.202303110052545 49
-1.521921506227642 -0.620774821725391 0.201815632678924 49
-1.527760493257163 -0.616945157129626 0.202303110052545 48
-1.529904726103273 -0.611608519160693 0.202303110052545 49
-1.539413596181867 -0.609186185218991 0.203278064799786 47
-1.526743809186987 -0.598016985536842 0.201328155305304 49
-1.532523724705435 -0.594119082020924 0.201815632678924 49
-1.534588250660927 -0.588765956335657 0.201815632678924 49
-1.536634078142872 -0.583405656723014 0.201815632678924 50
-1.538560272082482 -0.578306786728190 0.201815632678924 49
-1.536848383523629 -0.571548790517636 0.201328155305304 49
-1.535206662086102 -0.564541873357850 0.200840677931683 50
-1.540898918087378 -0.560536794616116 0.201328155305304 50
-1.542749252697850 -0.555423907643151 0.201328155305304 48
-1.548418786988280 -0.551367128606839 0.201815632678924 48
-1.546589215861778 -0.544640038246745 0.201328155305304 48
-1.542856919239429 -0.537279624330391 0.200596939244873 51
-1.546506948349035 -0.532806982683314 0.200840677931683 49
-1.548357369947621 -0.527405419972936 0.200840677931683 50
-1.554042822979682 -0.522993191377005 0.201328155305304 50
-1.546440909805203 -0.514432420975246 0.200109461871252 51
-1.548049412887542 -0.509571602945194 0.200109461871252 54
-1.553594159935664 -0.505392970053392 0.200596939244873 51
-1.559216000155201 -0.500909694708754 0.201084416618493 54
-1.559062935343378 -0.494863401077948 0.200840677931683 50
-1.555098378142035 -0.487636378431317 0.200109461871252 51
-1.552998646078880 -0.481030423759654 0.199621984497632 54
-1.562094377750318 -0.478474683725728 0.200596939244873 51
-1.565655116157241 -0.473593791490765 0.200840677931683 50
-1.569364299470316 -0.468146080770996 0.201084416618493 45
-1.563371957396744 -0.460421900103667 0.200109461871252 38
-1.566875780071904 -0.455516064316289 0.200353200558062 47
-1.553191500590431 -0.445663882975483 0.198403291063580 64
nan nan nan 0
nan nan nan 0
nan nan nan 0
-1.651052418884696 -0.449509449694929 0.210102748030474 1
-1.610508869380500 -0.432137143239771 0.204740496920648 1
-1.627359950099385 -0.430574811976357 0.206690406415130 1
-1.651827597020459 -0.431192564904672 0.209615270656854 1
-3.072104229047093 -0.790497123001436 0.389494421522851 2
-5.526009665380158 -1.402401036042005 0.700017508519167 2
-5.527019710519590 -1.382139954944307 0.699530031145547 4
-5.535903468752998 -1.362822171970776 0.700017508519167 6
-5.532910128749672 -1.341618803980962 0.699042553771926 8
-5.525974691342165 -1.319530857738139 0.697580121651064 14
-5.536344266596624 -1.301596495595414 0.698311337711495 14
-5.546431782303684 -1.284573856291495 0.699042553771926 6
-5.566365622866964 -1.268734534490394 0.700992463266408 4
-5.582382313054678 -1.251902883949374 0.702454895387270 6
-5.546010042129131 -1.223429025974605 0.697336382964254 10
-5.544426915907983 -1.202799823577465 0.696605166903823 10
-5.562181664922518 -1.186337389625459 0.698311337711495 10
-5.568027905839506 -1.168293646747547 0.698555076398305 10
-5.581793080463542 -1.150854759708600 0.699773769832357 10
-5.564374865276122 -1.127028927746586 0.697092644277444 8
-3.196890769156837 -0.635901111147164 0.400218923742504 1
-3.121159430421418 -0.609519053095714 0.390469376270093 3
-5.614863880980441 -1.076171613688306 0.701967418013649 4
-5.599077233367361 -1.052896894435920 0.699530031145547 6
-5.540249083631124 -1.021824424494079 0.691730393167617 4
-3.004347063892355 -0.543274449584905 0.374870100314234 2
-2.967132487464424 -0.525855740810728 0.369995326578028 4
nan nan nan 0
-2.913805082601663 -0.496495722517568 0.362926904660529 38
-2.903856681659960 -0.483855151331909 0.361464472539667 38
-2.880058058839467 -0.469563251898448 0.358295869611134 44
-2.865917177819759 -0.457506597314369 0.356345960116651 43
-2.871419417845696 -0.448112067130041 0.356833437490272 44
-2.873042543907331 -0.437584778971309 0.356833437490272 44
-2.876515988419233 -0.427845367652758 0.357077176177082 46
-2.864095107490535 -0.416805306817844 0.355371005369410 44
-2.869463352192467 -0.407363241694921 0.355858482743031 44
