# This PCD file was generated using the MATLABÂ® pcwrite function
# from Computer Vision ToolboxÂ®.
# .PCD v.7 - Point Cloud Data file format
VERSION .7
FIELDS x y z intensity
SIZE 8 8 8 1
TYPE F F F U
COUNT 1 1 1 1
WIDTH 837
HEIGHT 1
VIEWPOINT 0 0 0 1 0 0 0
POINTS 837
DATA ascii
-1.636992047728521 -1.236700508079986 0.549731651797754 31
-1.633785378666821 -1.224898105623497 0.547143461346729 30
-1.633189756361561 -1.216012407279158 0.545590547076114 34
-1.628313290481221 -1.203130150149329 0.542484718534883 34
-1.633851593316118 -1.198866719747438 0.543002356625088 35
-1.641358106945717 -1.195144601650764 0.544037632805499 37
-1.640615904946677 -1.186299196068228 0.542484718534883 38
-1.635535219945180 -1.173520752840821 0.539378889993653 40
-1.632921299392842 -1.163891653161683 0.537308337632833 41
-1.635397044793198 -1.157068818509172 0.536790699542628 39
-1.637845073765209 -1.150242895176268 0.536273061452423 41
-1.634124972269558 -1.138709810912876 0.533684871001398 39
-1.626771576283621 -1.125590132416346 0.530061404369963 40
-1.627505765433665 -1.117717468402884 0.529026128189552 41
-1.631397412174495 -1.112029603582178 0.529026128189552 40
-1.643463529647248 -1.111453931989861 0.531614318640578 43
-1.637517187673305 -1.099536373189819 0.528508490099347 43
-1.626877035524046 -1.084171828425416 0.523849747287502 40
-1.629228294726915 -1.077136327093436 0.523332109197297 43
-1.639439120178527 -1.075681837001957 0.525402661558117 43
-1.641378479053684 -1.069184923499441 0.524885023467912 47
-1.645100631080644 -1.063448929548174 0.524885023467912 48
-1.633985404378860 -1.048597308403760 0.520226280656067 45
-1.631299052943198 -1.038451751937204 0.518155728295247 43
-1.636366814225869 -1.034068464030628 0.518673366385452 41
-1.636872129193941 -1.026011910377736 0.517638090205041 41
-1.641905772726982 -1.021598783633102 0.518155728295247 44
-1.635775120510000 -1.009486679398927 0.515049899754016 44
-1.635469126939045 -1.002609446186162 0.514014623573606 43
-1.637482201427629 -0.995604783991713 0.513496985483401 38
-1.649044776418328 -0.995159995452067 0.516085175934426 45
-1.649365835610818 -0.987125088873344 0.515049899754016 45
-1.637681777801554 -0.972770919370009 0.510391156942171 40
-1.639403036105548 -0.966067637374023 0.509873518851966 43
-1.646268743691814 -0.962001781028467 0.510908795032376 43
-1.653126625354126 -0.957898548122585 0.511944071212786 43
-1.650938347802755 -0.950098646809657 0.510391156942171 40
-1.645856087831866 -0.939541316478194 0.507802966491146 44
-1.646088729652111 -0.931312193718852 0.506767690310736 44
-1.649491103020335 -0.925272721479391 0.506767690310736 44
-1.655926345100025 -0.921676780019148 0.507802966491146 44
-1.655750973800092 -0.914023643467262 0.506767690310736 44
-1.655384172903193 -0.906671917178162 0.505732414130326 45
-1.651748629822714 -0.897199639365544 0.503661861769505 45
-1.656571169751098 -0.892344659574254 0.504179499859710 47
-1.664787879719624 -0.889287378093578 0.505732414130326 44
-1.657332455180664 -0.878623724050222 0.502626585589095 45
-1.651990962273323 -0.868050381000437 0.500038395138070 47
-1.653147331819347 -0.861674481795129 0.499520757047865 45
-1.663159891912934 -0.859156174544441 0.501591309408685 45
-1.662709870531802 -0.851584137965764 0.500556033228275 50
-1.665819914326685 -0.845484281717532 0.500556033228275 48
-1.658115419100388 -0.835033263288573 0.497450204687045 48
-1.659436252337600 -0.828087766292450 0.496932566596840 45
-1.667367457328607 -0.825150887781065 0.498485480867455 48
-1.666911468573246 -0.817333132691806 0.497450204687045 47
-1.665996520943935 -0.810402252562551 0.496414928506635 48
-1.661854555539771 -0.801225981858249 0.494344376145815 47
-1.664780033210730 -0.795129598742171 0.494344376145815 48
-1.672921942096475 -0.791501138982000 0.495897290416430 51
-1.671902552552831 -0.784600179475890 0.494862014236020 51
-1.665872601449611 -0.774686361152438 0.492273823784994 47
-1.651021222180220 -0.760781838011022 0.487097442882944 47
-1.660828499320972 -0.757933617325716 0.489167995243764 50
-1.666853046957321 -0.754014371570021 0.490203271424174 50
-1.676526529548098 -0.751351634148426 0.492273823784994 50
-1.668674352255659 -0.740500221845580 0.489167995243764 48
-1.658869391939918 -0.729228942938718 0.485544528612329 45
-1.664820652833188 -0.725267045623844 0.486579804792739 43
-1.663794628094817 -0.717920570994774 0.485544528612329 33
-1.667942486971211 -0.713158769319099 0.486062166702534 13
-1.652754458200079 -0.699510944814172 0.480885785800484 9
-1.667413852412890 -0.699546874118860 0.484509252431919 4
-5.268601954488568 -2.187714900479180 1.528585280375487 3
-5.272632951408927 -2.167841494298053 1.527550004195077 5
-5.291279520559331 -2.152870120796824 1.530655832736308 3
-5.312724102006143 -2.141088736305133 1.534796937457948 5
-5.309769216878452 -2.117308954865933 1.531691108916718 5
-5.323948512131089 -2.102527861069226 1.533761661277538 5
-5.324421306493246 -2.080188476515108 1.531691108916718 5
-5.345703946495647 -2.068096885537902 1.535832213638358 3
-5.352890383958178 -2.049424296937747 1.535832213638358 5
-5.347012126716677 -2.026868933192345 1.532208747006923 5
-5.354405057879675 -2.007257539965420 1.532208747006923 5
-5.364654242282542 -1.990834906796704 1.533244023187333 3
-5.389705815200347 -1.978754630032996 1.538420404089383 3
-5.389316891605680 -1.957291131882868 1.536349851728563 3
-5.392818098344818 -1.936219541341833 1.535314575548153 3
-5.402179513966373 -1.921505043442685 1.536349851728563 3
-5.408853906339348 -1.902636211410684 1.536349851728563 3
-5.430718319522061 -1.886926110663219 1.540490956450203 3
-5.426309593423348 -1.864191826182610 1.537385127908973 3
-5.443759099088974 -1.848966869411441 1.540490956450203 3
-5.435529011071862 -1.825034110061992 1.536349851728563 5
-5.448884782785811 -1.809434520563451 1.538420404089383 3
-5.473836351452451 -1.795472239518572 1.543596784991434 1
-5.475774955545222 -1.777074176211670 1.542561508811024 3
-5.471213388055983 -1.753454952612708 1.539455680269793 5
-5.469631464607455 -1.732968150272938 1.537385127908973 5
-5.479633877915651 -1.714062783062670 1.538420404089383 5
-5.492670407565363 -1.698164717261222 1.540490956450203 5
-5.513639474458930 -1.682532478524049 1.544632061171844 5
-5.496993508792555 -1.657546688505028 1.538420404089383 5
-5.514141553505535 -1.640693695366457 1.541526232630614 5
-5.522975420024335 -1.624452677470686 1.542561508811024 5
-5.524901692239056 -1.604086707508568 1.541526232630614 5
-5.541609987611151 -1.587984427130303 1.544632061171844 5
-5.532520652224789 -1.563459895808440 1.540490956450203 5
-5.541396408078557 -1.546143176632012 1.541526232630614 5
-5.546759694862970 -1.526790673784501 1.541526232630614 5
-5.555257229754735 -1.510371180469361 1.542561508811024 5
-5.553291601662489 -1.487999999999999 1.540490956450203 5
-5.566179475759446 -1.469608803447014 1.542561508811024 5
-5.582492789873230 -1.453090063711055 1.545667337352254 5
-5.572311443886418 -1.430726405167712 1.541526232630614 5
-5.581017311811760 -1.412214486822770 1.542561508811024 5
-5.604657532864404 -1.397398069289070 1.547737889713074 5
-5.590740343285753 -1.373217537570709 1.542561508811024 5
-5.598781888710669 -1.356556791295338 1.543596784991434 5
-5.611233034049961 -1.337819240341858 1.545667337352254 5
-5.616098697118142 -1.317244057291705 1.545667337352254 5
-5.617124087212193 -1.295782691835564 1.544632061171844 5
-5.613632105875594 -1.276416300200454 1.542561508811024 5
-5.629584658259597 -1.258361258832521 1.545667337352254 5
-5.637283411448393 -1.241500207128456 1.546702613532664 5
-5.649348477553148 -1.222464502460586 1.548773165893484 5
-5.647912559449875 -1.201531195506977 1.547220251622869 7
-5.648496402328076 -1.180032378624754 1.546184975442459 7
-5.657852478153839 -1.163448649573751 1.547737889713074 10
-5.659985597171178 -1.143309465010626 1.547220251622869 12
-5.675115006105381 -1.126791335004198 1.550326080164099 15
-5.679206784152471 -1.105983430255436 1.550326080164099 15
-5.679237773559979 -1.085427250469170 1.549290803983689 17
-5.675396977401700 -1.064172280163184 1.547220251622869 14
-5.686494419845738 -1.046745058624521 1.549290803983689 14
-5.690292737190250 -1.025895983894791 1.549290803983689 14
-5.688131959435535 -1.005018525597702 1.547737889713074 15
-5.682087739820236 -0.983509696878965 1.545149699262049 14
-5.689295583108948 -0.964315192109417 1.546184975442459 14
-5.696438611777150 -0.945082343091054 1.547220251622869 14
-5.703678143626148 -0.924815903057452 1.548255527803279 15
-5.706871604807873 -0.904900716578462 1.548255527803279 14
-5.684869844221329 -0.883112523053899 1.541526232630614 14
-5.701438637112909 -0.864297329688397 1.545149699262049 14
-5.698392977623226 -0.845530861612047 1.543596784991434 14
-5.707189597090095 -0.825469145236210 1.545149699262049 14
-5.704156982840852 -0.805728291964521 1.543596784991434 14
-5.703244130315333 -0.784289730621506 1.542561508811024 14
-5.705813570413684 -0.765372779250545 1.542561508811024 14
-5.712411739102530 -0.744954420302159 1.543596784991434 14
-5.720600034973442 -0.726737673945868 1.545149699262049 14
-5.732811879478484 -0.706947932493547 1.547737889713074 15
-5.721697969055115 -0.686322809865617 1.544114423081639 14
-5.722139930863649 -0.666122794220311 1.543596784991434 14
-5.735721890128130 -0.649447014310034 1.546702613532664 14
-5.734222967935169 -0.627999551152045 1.545667337352254 12
-5.734352904539968 -0.608776784268619 1.545149699262049 12
-5.722990701309246 -0.587375779922499 1.541526232630614 12
-5.734519042378104 -0.569348751675261 1.544114423081639 10
-5.748105811743961 -0.549429767998935 1.547220251622869 10
-5.742201439178434 -0.529655585043263 1.545149699262049 8
-3.267449908629843 -0.289887756175810 0.878949477168160 1
-3.201118742190311 -0.272181590551924 0.860832144010984 5
-3.182794674704431 -0.259436454130074 0.855655763108934 30
-3.191384893240145 -0.248925753889130 0.857726315469754 46
-3.205719964076771 -0.238788745115564 0.861349782101189 67
-3.169881576006934 -0.225551724984247 0.851514658387293 40
-3.164904565070471 -0.213541863657285 0.849961744116678 47
-3.157883733899664 -0.202550858094328 0.847891191755858 47
-3.174031550814560 -0.191907999293933 0.852032296477498 50
-3.155331913491714 -0.180830235180919 0.846855915575448 46
-3.161760733143259 -0.169574537571641 0.848408829846063 46
-3.156517443220276 -0.158797635061098 0.846855915575448 46
-3.155148509490953 -0.147137361401946 0.846338277485243 46
-3.157549128741838 -0.136757295368571 0.846855915575448 47
-3.163820167657955 -0.125412934580220 0.848408829846063 46
-3.162267984015108 -0.115402444583542 0.847891191755858 46
-3.158789946701061 -0.104235938500961 0.846855915575448 46
-3.159134553597983 -0.093209068862107 0.846855915575448 46
-3.171042205756819 -0.081929011022122 0.849961744116678 47
-3.180953266842129 -0.071630463037694 0.852549934567703 47
-3.171526413967690 -0.060342680114342 0.849961744116678 46
-3.165914239402857 -0.049734155119606 0.848408829846063 46
-3.164143547792559 -0.038106901022671 0.847891191755858 46
-3.183565400764468 -0.028338234506004 0.853067572657908 50
-3.185576747669375 -0.017235797060469 0.853585210748113 48
-3.179821959928190 -0.006104827411616 0.852032296477498 47
-3.170164650842827 0.004979687084507 0.849444106026473 48
-3.172056931165694 0.016609003034893 0.849961744116678 46
-3.179706742043759 0.027748880351201 0.852032296477498 47
-3.193119221307143 0.038455865317749 0.855655763108934 48
-3.187161985976031 0.050067941395576 0.854102848838319 46
-3.183136373052617 0.059452056558008 0.853067572657908 47
-3.184828459454349 0.071161589651586 0.853585210748113 46
-3.188451631587562 0.081265099204231 0.854620486928524 47
-3.195856488339533 0.093176011609506 0.856691039289344 47
-3.201322435037090 0.103961450095543 0.858243953559959 47
-3.189336348550625 0.115275508904624 0.855138125018729 46
-3.188958461723336 0.125294519204124 0.855138125018729 45
-3.201988313951391 0.137562226011387 0.858761591650164 48
-3.207303892759785 0.148447601497019 0.860314505920779 50
-3.204836711738130 0.159546222657470 0.859796867830574 45
-3.190815611701590 0.168898902306990 0.856173401199139 47
-3.197890188925201 0.181029433390572 0.858243953559959 47
-3.208775306541955 0.193446594699473 0.861349782101189 46
-3.210008435949720 0.204769116675993 0.861867420191394 46
-3.211201593825989 0.216102603089523 0.862385058281599 45
-3.214241976336540 0.228144348151963 0.863420334462009 51
-3.227037036160992 0.238677636637190 0.867043801093444 48
-3.210775594392078 0.248746897569542 0.862902696371804 22
-3.211767845568764 0.260669584355538 0.863420334462009 20
-5.848037753779886 0.495185181499649 1.572584518042916 16
-5.848107881930604 0.516786036644256 1.573102156133121 20
-5.848192080740909 0.537373361814541 1.573619794223326 18
-5.861860476232313 0.557205799454620 1.577760898944967 16
-5.857856342281256 0.578496991594172 1.577243260854762 16
-5.863697610744159 0.597680691623636 1.579313813215582 15
-5.857625290634521 0.618762324364502 1.578278537035172 13
-5.859270605746317 0.639624771271131 1.579313813215582 11
-5.870324537924925 0.662612547049219 1.582937279847017 9
-5.870132884967330 0.681274126681438 1.583454917937222 7
-5.875269030030423 0.703703636342427 1.585525470298042 7
-5.859607414603573 0.720507458336418 1.581902003666607 7
-5.855010731114639 0.741736359391226 1.581384365576402 7
-5.860048615731732 0.763167572765665 1.583454917937222 7
-5.865008130648703 0.784642982802230 1.585525470298042 7
-5.862233483873744 0.805110901420218 1.585525470298042 7
-5.857330319449519 0.826321790041396 1.585007832207837 5
-5.850733922957432 0.845188443193040 1.583972556027427 5
-5.855392135107721 0.866737677993053 1.586043108388247 5
-5.856305894859297 0.886728519373998 1.587078384568657 5
-5.860652566094749 0.909371846816779 1.589148936929478 5
-5.857442560869689 0.929823801786265 1.589148936929478 5
-5.842719827191567 0.948407232826009 1.586043108388247 5
-5.846996875521010 0.970061100235311 1.588113660749067 5
-5.835956366469976 0.989173668772430 1.586043108388247 5
-5.840082139285926 1.010856867679952 1.588113660749067 5
-5.840322781092675 1.031908653372889 1.589148936929478 5
-5.829080364926599 1.050917837160516 1.587078384568657 5
-5.840388856199733 1.075073274377471 1.591219489290297 5
-5.840780244767505 1.094127457917707 1.592254765470708 5
-5.836730835773638 1.115527638637875 1.592254765470708 5
-5.817829170631894 1.131925236880423 1.588113660749067 5
-5.821221094978047 1.154744617549124 1.590184213109888 5
-5.824934504045252 1.175570833858560 1.592254765470708 5
-5.831940246712419 1.199247069560634 1.595360594011938 5
-5.820367503717502 1.216998342170058 1.593290041651118 5
-5.830983853448008 1.241541394165670 1.597431146372758 3
-5.812168115154791 1.255573432481501 1.593290041651118 3
-5.796428786285432 1.273366991050767 1.590184213109888 5
-5.814119724276344 1.300675231337006 1.596395870192348 5
-5.805546070167977 1.321118996241834 1.595360594011938 5
-5.790306197139646 1.335733096543628 1.592254765470708 5
-5.785608341988984 1.355936899322127 1.592254765470708 5
-5.788357338218993 1.377913678721468 1.594325317831528 5
-5.787023521774642 1.400028333106474 1.595360594011938 3
-5.778844156285178 1.417281552229496 1.594325317831528 3
-5.781360235439085 1.439311659688941 1.596395870192348 3
-5.783537691346602 1.462386019060389 1.598466422553168 3
-5.785882747441500 1.484485845264947 1.600536974913988 3
-5.769448342112791 1.501753495181612 1.597431146372758 3
-5.764171094695856 1.521883479005865 1.597431146372758 5
-5.744163055259641 1.536995002518097 1.593290041651118 5
-5.727304962026286 1.555000977596208 1.590184213109888 5
-5.736742733437861 1.579085048776441 1.594325317831528 5
-5.727195190425184 1.599061629189451 1.593290041651118 5
-5.714988926195528 1.613947369143494 1.591219489290297 5
-5.712749528413904 1.635946694560228 1.592254765470708 5
-5.718425684399970 1.658109847708712 1.595360594011938 5
-5.719723768721879 1.681236967865088 1.597431146372758 5
-5.713820310006132 1.701192287062121 1.597431146372758 5
-5.707546749950501 1.722123058822362 1.597431146372758 5
-5.694717446475341 1.737789912470217 1.595360594011938 5
-5.688616733490545 1.757657598773219 1.595360594011938 5
-5.697196730403553 1.782117765701097 1.599501698733578 5
-5.690626675298669 1.802987065435474 1.599501698733578 5
-5.688295829142269 1.823027139703588 1.600536974913988 5
-5.685572846684702 1.844063916887383 1.601572251094398 5
-5.668412693925275 1.859295196389452 1.598466422553168 3
-5.676227216522499 1.884929096791539 1.602607527274808 3
-5.659619988983426 1.898076894134598 1.599501698733578 5
-5.645642236293059 1.915338474625859 1.597431146372758 5
-5.638584249162426 1.936017922875619 1.597431146372758 5
-5.631791933275217 1.955688460081105 1.597431146372758 5
-5.632221897913808 1.977895550429440 1.599501698733578 5
-5.614360560121173 1.993664898268684 1.596395870192348 5
-5.611355112111052 2.013576802206308 1.597431146372758 5
-5.600305448512942 2.032811626538247 1.596395870192348 5
-5.589906156153273 2.050041399697481 1.595360594011938 5
-5.593222492773926 2.074546514855213 1.598466422553168 5
-5.586312295184618 2.093082902476451 1.598466422553168 5
-5.582216325667207 2.114912577200985 1.599501698733578 5
-5.557500762027244 2.125538063876533 1.594325317831528 5
-5.560483998113125 2.150073356731367 1.597431146372758 5
-5.574157550568828 2.178878922832292 1.603642803455218 5
-5.548167256679787 2.192195517711949 1.598466422553168 5
-5.552405901975334 2.212939001471550 1.601572251094398 5
-5.533895089329604 2.227978060094797 1.598466422553168 5
-5.526084280178410 2.247281385215286 1.598466422553168 5
-5.532105310271516 2.273394807240446 1.602607527274808 5
-5.531673687492821 2.294688317797536 1.604678079635629 5
-5.520066397342532 2.312490589787584 1.603642803455218 5
-5.501691564784366 2.326268969382891 1.600536974913988 5
-5.496681532149670 2.347935786738892 1.601572251094398 5
-5.506605627059416 2.373798075156166 1.606748631996449 5
-5.498285977323022 2.393005253891133 1.606748631996449 5
-5.485941208739470 2.411586546903951 1.605713355816039 5
-5.466895020723302 2.426019774427423 1.602607527274808 5
-5.476023794565588 2.452985590246923 1.607783908176859 5
-5.456866238541839 2.467310097129900 1.604678079635629 5
-5.466665742836710 2.492455470411156 1.609854460537679 5
-5.478551571901402 2.522169498169552 1.616066117620139 1
-5.459644838568170 2.535441054836501 1.612960289078909 3
-3.743156214990113 1.755016076428740 1.107745513038789 1
-5.480232220357645 2.591664199567564 1.624348327063420 1
-5.470696486553717 2.611732847052908 1.624348327063420 1
-5.399343956590693 2.599689492493586 1.605713355816039 3
-5.393254386971744 2.621150501399639 1.606748631996449 5
-5.388923557430172 2.638840237070385 1.607783908176859 5
-5.365360497771285 2.651726322206300 1.603642803455218 5
-5.379014956806476 2.680705839590210 1.610372098627884 7
-5.367898763909565 2.698598057567132 1.609854460537679 5
-5.344189288194760 2.711261970171527 1.605713355816039 5
-5.335935725877241 2.731711537392242 1.606230993906244 7
-5.345731148554803 2.759137589929709 1.611925012898499 5
-5.318931659558900 2.768860566102877 1.606748631996449 5
-5.330247811884108 2.797256042939072 1.612960289078909 5
-5.309715729163448 2.811349763256292 1.609854460537679 5
-5.297448514025771 2.826198165962563 1.608819184357269 5
-5.297758594879308 2.850164139689956 1.611925012898499 3
-5.303250482596258 2.880628646842712 1.617101393800550 3
-5.296551611561293 2.900978928453360 1.618136669980960 5
-5.259842215034002 2.903588898042066 1.609854460537679 5
-5.256426746831271 2.925689595290142 1.611925012898499 5
-5.247209497606200 2.942188682090845 1.611925012898499 5
-5.243116848899097 2.965204887375180 1.613995565259319 5
-5.230418388287458 2.979749417202545 1.612960289078909 5
-5.212761721138142 2.995050165652196 1.610889736718089 5
-5.206144817860369 3.014255776847380 1.611925012898499 5
-5.195062049489260 3.033317005317549 1.611925012898499 5
-5.191634855088983 3.054446242242356 1.613995565259319 5
-5.170436171487490 3.067539739385639 1.610889736718089 5
-5.153602720989975 3.080703787488947 1.608819184357269 5
-5.152203936615217 3.105555722945384 1.611925012898499 5
-5.135272362242040 3.118612893816737 1.609854460537679 5
-5.134241301493927 3.142570502612222 1.612960289078909 5
-5.120503234077801 3.157551010291197 1.611925012898499 3
-5.105614594346522 3.174257373013746 1.610889736718089 3
-5.101609225869395 3.195272509877483 1.612960289078909 5
-5.077355436648483 3.204811788854394 1.608819184357269 7
-5.072657748496095 3.226662923634704 1.610889736718089 7
-5.051040044221936 3.238976593968227 1.607783908176859 5
-5.059744476839851 3.268287035193188 1.613995565259319 5
-5.032114356248178 3.275390348902707 1.608819184357269 5
-5.023881244725927 3.295054757477941 1.609854460537679 5
-5.025242251577370 3.321092384786195 1.613995565259319 5
-4.987891502402796 3.321481443454408 1.605713355816039 5
-4.976266980559626 3.338872198384655 1.605713355816039 5
-4.971570057245104 3.359682435961985 1.607783908176859 5
-4.965609448418028 3.382231722054028 1.609854460537679 7
-4.957552348869214 3.400865325818955 1.610889736718089 5
-4.948232310846941 3.421210129571482 1.611925012898499 5
-4.930518459316866 3.433184576777453 1.609854460537679 5
-4.908414177462711 3.444574443390736 1.606748631996449 5
-4.903275090202738 3.465292227481159 1.608819184357269 5
-4.893688291342463 3.485481820791012 1.609854460537679 5
-4.888382342242616 3.506194493869782 1.611925012898499 5
-4.859841955357785 3.512770844009293 1.606748631996449 5
-4.858154942285334 3.534840756333378 1.609854460537679 5
-4.848902709235490 3.554061447485827 1.610889736718089 5
-4.839575447834270 3.573260589085534 1.611925012898499 5
-4.829546123629123 3.593280860939400 1.612960289078909 5
-4.814511648509569 3.606959847178486 1.611925012898499 5
-4.795723544186018 3.619088877552863 1.609854460537679 5
-4.792289120376663 3.642821446705007 1.612960289078909 5
-4.785039990100451 3.665060391635853 1.615030841439729 3
-4.769800376511074 3.678548447901437 1.613995565259319 3
-4.747776975260317 3.688065082034796 1.610889736718089 5
-4.740960257264751 3.709377164011585 1.612960289078909 5
-4.727983231065306 3.725903604848057 1.612960289078909 5
-4.714948595882253 3.742384646724927 1.612960289078909 5
-4.692802871558007 3.751582309450755 1.609854460537679 5
-4.680336373678938 3.767123577094972 1.609854460537679 5
-4.669498701806769 3.786686167344902 1.610889736718089 5
-3.885307281401199 3.171038291202414 1.343788482172288 3
-3.866197926264945 3.179122421743372 1.341200291721263 7
-3.849681969345496 3.186998003773554 1.339129739360442 7
-3.814238186391103 3.181288404025844 1.330847529917162 7
-3.807184402998617 3.195739525115544 1.331882806097572 33
-3.765943754582488 3.184723218640963 1.321530044293471 24
-3.751862568768364 3.195344243185841 1.320494768113061 29
-3.723998294452247 3.195236406438204 1.314800749120805 31
-3.687622529946897 3.184193700979414 1.305483263497115 29
-3.658991964763674 3.181834548583499 1.299271606414654 26
-3.659489652635092 3.204769381204370 1.303412711136295 33
-3.623091831993011 3.196433498501050 1.294612863602809 24
-3.619371324218404 3.212298761975667 1.296683415963629 31
-3.587971025967388 3.206889688451854 1.289436482700758 27
-3.562396321298060 3.206470402316231 1.284260101798708 24
-3.542033344345745 3.211719713122084 1.281154273257478 26
-3.539924303696329 3.231262278897836 1.284260101798708 29
-3.572713542874823 3.284127882959910 1.300306882595064 73
-3.532874304677096 3.270332324643283 1.289954120790963 39
-3.532741965329636 3.293182617727779 1.294095225512604 39
-3.535309990451851 3.318716101774303 1.299271606414654 43
-3.548973561307013 3.354924328407733 1.308589092038345 42
-3.540627632980768 3.369338210797579 1.309624368218755 42
-3.546383980897421 3.399671997841873 1.316353663391421 43
-3.539857193950823 3.414820244023065 1.317906577662036 40
-3.550869870316507 3.450659245046279 1.326706425195521 40
-3.557360063865080 3.479977378613834 1.333435720368187 38
-3.562469442388416 3.510620059643190 1.340165015540852 40
-3.552935908689823 3.525755551116558 1.341200291721263 40
-3.561849725002146 3.560606621848701 1.349482501164543 40
-3.570340405605594 3.590336840723772 1.356729434427414 43
-3.561228708690774 3.607523131680795 1.358282348698029 40
-3.573593112958679 3.644140359011642 1.367599834321719 42
-3.571633206630737 3.667664520296953 1.371740939043360 42
-3.576214469555510 3.695526039763746 1.377952596125820 38
-3.582720681933172 3.729506193452770 1.385717167478896 36
-3.590339098892954 3.762330368070081 1.393481738831972 31
-3.591801264769722 3.790264749739209 1.399175757824227 12
-3.757277746119529 3.992707322490811 1.469056900001908 1
-3.808556111120593 4.077037443930302 1.494938804512160 1
-3.813412115231738 4.109469801401282 1.502185737775031 1
-3.825226403843869 4.151169262584534 1.512538499579131 1
-3.826362559011951 4.181599159248997 1.518750156661592 1
-3.822136042390019 4.206368300501724 1.522891261383232 1
-3.828136411378474 4.242633076064370 1.531173470826513 3
-3.815881834446977 4.258847517948142 1.532208747006923 3
-3.829994166983633 4.303225493305627 1.543596784991434 5
-3.830824283585720 4.336055160333293 1.550326080164099 22
-3.809536170859898 4.339357977383079 1.547220251622869 15
-3.793606040884710 4.353291478815898 1.547220251622869 15
-3.776620442902273 4.362926317503959 1.546184975442459 14
-3.764381122757033 4.381134805889568 1.547737889713074 14
-3.741053187305850 4.383307848894486 1.544114423081639 14
-3.727459893551086 4.399938084659660 1.545149699262049 14
-3.711604842822449 4.410796445806241 1.544632061171844 14
-3.701605582366017 4.431784020636024 1.547220251622869 14
-3.688122390016101 4.445521416100529 1.547737889713074 14
-3.672582155089872 4.458368282102989 1.547737889713074 19
-3.666781778724213 4.483123796400050 1.551878994434714 26
-3.674677418557674 4.526529996514030 1.562231756238815 35
-3.676206092432943 4.557599585868936 1.568961051411481 30
-3.683219349410434 4.599054018114820 1.578796175125377 30
-3.691190056318477 4.642124688587276 1.589148936929478 33
-3.686118944431592 4.670787289999827 1.594325317831528 30
-3.680143839478556 4.695148817313260 1.598466422553168 15
-3.668478058135282 4.714064714120201 1.600536974913988 20
-3.647632969090648 4.722891878564592 1.598984060643373 20
-3.629949275534087 4.734062668894407 1.598466422553168 16
-3.606381338892787 4.737481843084968 1.595360594011938 16
-3.593316781177873 4.754665262368130 1.596913508282553 16
-3.576370332549313 4.765009912906156 1.596395870192348 16
-3.557727693985688 4.776536645284930 1.595878232102143 16
-3.540719727746147 4.786755099712448 1.595360594011938 16
-3.517435920453730 4.791913669501635 1.592772403560913 16
-3.506618101593320 4.807011157725709 1.594325317831528 16
-3.490108756075796 4.821396148078884 1.594842955921733 16
-3.471846062788505 4.829805999861438 1.593807679741323 16
-3.459729778971925 4.850362262978683 1.596395870192348 16
-3.437464834199728 4.856702821314233 1.594325317831528 16
-3.416310220518703 4.864526343605742 1.592772403560913 15
-3.402967441314530 4.876225531753901 1.593290041651118 16
-3.391425709594417 4.896014739010143 1.595878232102143 16
-3.372125785730312 4.904639398687691 1.594842955921733 15
-3.349772138858765 4.910582316607713 1.592772403560913 15
-3.332610599787532 4.922245286516976 1.592772403560913 16
-3.315408453907841 4.933848280420793 1.592772403560913 16
-3.303317624645643 4.951243542449947 1.594842955921733 15
-3.289413263643779 4.969761325056678 1.596913508282553 16
-3.269924257733370 4.977983930969386 1.595878232102143 15
-3.250417953630479 4.986131072551491 1.594842955921733 15
-3.237366283980274 5.006121979731015 1.597431146372758 15
nan nan nan 0
-3.200262953518183 5.025341904186409 1.596395870192348 5
-3.199213810873205 5.062611900299593 1.604678079635629 3
-3.182124370159144 5.068809549762701 1.603642803455218 5
-3.156376825795162 5.068959208296437 1.600019336823783 16
-3.150722972983373 5.097474410575183 1.605713355816039 13
-3.125960569378003 5.099106160124152 1.602607527274808 15
-3.103898867200122 5.099000503818586 1.599501698733578 20
-3.085189247810811 5.110342612872542 1.599501698733578 18
-3.066339363021788 5.119423491428655 1.598984060643373 18
-3.050514891168421 5.135610605438549 1.600536974913988 16
-3.026514985548825 5.131856512791566 1.596395870192348 16
-3.005734953260077 5.139579551463769 1.595360594011938 16
-2.987776160659180 5.150040212354712 1.595360594011938 16
-2.971708140731220 5.163786880957096 1.596395870192348 16
-2.955580532774422 5.177484084657632 1.597431146372758 16
-2.937535835620086 5.189963284714175 1.597948784462963 16
-2.918377726926853 5.194113559464220 1.596395870192348 20
-2.900229107323868 5.204268954489594 1.596395870192348 15
-2.884824803852506 5.217239076722052 1.597431146372758 11
-2.864754682231009 5.226083414728492 1.596913508282553 7
-2.852023538531390 5.244040050515565 1.599501698733578 9
-2.825447549008433 5.238660715655202 1.594842955921733 15
-2.808960371380555 5.254092296262641 1.596395870192348 18
-2.791507918326403 5.265572218570903 1.596913508282553 18
-2.774908437068484 5.278704277388485 1.597948784462963 20
-2.755572487896132 5.286645249735236 1.597431146372758 18
-2.735364465965051 5.290605816599672 1.595878232102143 20
-2.717716944422048 5.304034488676144 1.596913508282553 20
-2.659051438416279 5.227701447888709 1.571549241862506 20
-2.630308336851559 5.218436113827508 1.565855222870250 22
-2.602578110449952 5.208576407898873 1.560161203877995 16
-2.587756025984924 5.226736752554408 1.562749394329020 18
-2.572112135624041 5.238757549844738 1.563784670509430 22
-2.571484936963340 5.286368522661517 1.575172708493941 13
-2.594226190165278 5.378387546100647 1.600019336823783 22
-2.567832784040823 5.373915096231768 1.595878232102143 13
-2.545862541399972 5.373671627804574 1.593290041651118 5
-2.528731450070736 5.386023025790416 1.594325317831528 20
-2.532732727233039 5.443860924421812 1.608819184357269 22
-2.541868330187729 5.516270693448048 1.627454155604650 22
-2.548784975672640 5.574739249757027 1.642465660220597 20
-2.553224032023518 5.636393907079727 1.657994802926748 20
-2.561012950914161 5.709168876955975 1.676629774174129 22
-2.569086533699258 5.783841326500620 1.695782383511716 20
-2.577134940204107 5.854212778946582 1.713899716668892 20
-2.585254841313577 5.928693198402852 1.733052326006479 20
-2.586757882645079 5.989112830849257 1.748063830622425 20
-2.815049803933170 6.580687603749626 1.917849124209679 22
-2.824466262732870 6.666962500135339 1.940107562088496 22
-2.837051211704261 6.762289512563390 1.964954190418338 24
-2.845752692184181 6.846583865754738 1.986694990206949 28
-2.842687323510624 6.910566062366555 2.002224132913101 78
-2.805175516242596 6.884174225281449 1.991871371108999 54
-2.779924914546102 6.894409467854532 1.991871371108999 63
-2.758251805671053 6.903108822658726 1.991871371108999 63
-2.728670791713375 6.902392579906292 1.988765542567769 65
-2.698019770747626 6.891615242382501 1.983071523575514 61
-2.670649630500673 6.896053259081241 1.981518609304899 67
-2.647766809669838 6.904871535560180 1.981518609304899 65
-2.621756337534953 6.912723403886615 1.981000971214694 65
-2.595423132329201 6.912336626140357 1.978412780763669 65
-2.569933247707387 6.917732381835558 1.977377504583259 67
-2.539772310563649 6.910341619446122 1.972718761771413 65
-2.513767801659846 6.917788242428992 1.972201123681208 63
-2.490060337262792 6.920198057247895 1.970648209410593 61
-2.463945992747778 6.923387744701273 1.969095295139978 63
-2.436481861802017 6.918765253168304 1.965471828508543 61
-2.409201944649518 6.922175415878703 1.963918914237927 60
-2.386862886530446 6.931953158582414 1.964436552328132 58
-2.361406173809865 6.936585061189270 1.963401276147722 61
-2.334734732512369 6.941531344809493 1.962365999967312 58
-2.304395370594651 6.931306858811340 1.957189619065262 54
-2.280190888947514 6.935239988405122 1.956154342884852 56
-2.257162441946389 6.946831688308692 1.957189619065262 58
-2.232340870262494 6.948760703738159 1.955636704794647 52
-2.206273261135118 6.955054545595525 1.955119066704442 54
-2.179093636527310 6.953496250126498 1.952530876253417 56
-2.153593162179272 6.961436322275150 1.952530876253417 56
-2.130101397588946 6.958559301901175 1.949942685802391 58
-2.106258763281263 6.971867679825586 1.951495600073006 56
-2.081357340793204 6.977326179259766 1.950977961982801 54
nan nan nan 0
-2.027340934329604 6.969072302345259 1.944766304900341 45
-2.003382833940314 6.982026834505797 1.946319219170956 41
-1.986893748843903 7.016858967544970 1.954083790524032 69
-1.953550990288529 6.992121631485387 1.945283942990546 48
-1.923998628495918 6.980274201281270 1.940107562088496 56
-1.897388700278287 6.983550586204662 1.939072285908085 56
-1.874939250584158 6.987611085631670 1.938554647817880 58
-1.851030648538074 6.995980861051287 1.939072285908085 43
nan nan nan 0
nan nan nan 0
-1.631206007157250 6.432299289690350 1.778086839854317 15
nan nan nan 0
-1.596672720399830 6.490705329301476 1.791027792109444 90
-1.556719429849976 6.424893233792057 1.771357544681652 9
nan nan nan 0
-1.513392968230371 6.437221144281751 1.771875182771857 7
nan nan nan 0
-1.472706023016432 6.466465859324956 1.777051563673907 41
-1.439417730467725 6.418533084859726 1.762557697148166 13
nan nan nan 0
nan nan nan 0
nan nan nan 0
-1.357466416077977 6.464001895064394 1.769804630411037 9
-1.328694195049506 6.444337134129145 1.763075335238371 5
-1.310771145510077 6.465747847959906 1.767734078050217 24
nan nan nan 0
-1.265970734526403 6.476637087848070 1.768251716140422 13
-1.241171459981143 6.469633173713943 1.765145887599191 3
-1.221141304390765 6.481307273154536 1.767216439960012 3
-1.192467762166134 6.459142975015395 1.759969506697141 5
-1.171290249948970 6.470869955473491 1.762040059057961 3
-1.152745018247755 6.497744900445958 1.768251716140422 5
-1.129866801415148 6.493918778963134 1.766181163779601 3
-1.102816140139777 6.478971732900954 1.761004782877551 3
-1.082596431186615 6.490215276048716 1.763075335238371 5
-1.058067578420664 6.482514969901053 1.759969506697141 3
-1.034909278748884 6.490164939309467 1.761004782877551 5
-1.012248070296968 6.493737906542153 1.761004782877551 3
-0.991290920804888 6.500878489912330 1.762040059057961 7
-0.968023489997317 6.500477573032292 1.761004782877551 5
-0.943679732346873 6.484534770172329 1.755828401975501 5
-0.921804777499611 6.501339021635040 1.759451868606936 7
-0.900770201018811 6.508187309688853 1.760487144787346 7
-0.877941807794639 6.519103354476752 1.762557697148166 11
-0.853049502353464 6.497078510326827 1.755828401975501 9
-0.830942055799705 6.513575701713992 1.759451868606936 13
-0.810052023182295 6.522046755001122 1.761004782877551 20
-0.786604250532645 6.528807899097583 1.762040059057961 28
-0.766747384758187 6.546730370549608 1.766181163779601 78
nan nan nan 0
nan nan nan 0
-0.694466310491889 6.519822893297659 1.756863678155911 100
-0.671703650555976 6.522207312114991 1.756863678155911 99
-0.647603189552183 6.522703020713680 1.756346040065706 28
-0.625416100547742 6.519045619324807 1.754793125795091 20
-0.602301024880361 6.517341703512480 1.753757849614680 15
-0.582227982100143 6.536621272824263 1.758416592426526 7
-0.558101815827604 6.536786491045366 1.757898954336321 11
-0.537053810049010 6.546302814612845 1.759969506697141 5
-0.512687324958077 6.528878371702878 1.754793125795091 3
-0.488754345863126 6.530713611471736 1.754793125795091 3
-0.465405124174340 6.524672072293458 1.752722573434270 3
nan nan nan 0
-0.463489201604870 7.206371839148193 1.934931181186445 100
-0.437355059626291 7.171232092278351 1.925096057472549 69
-0.410515582800700 7.163143475983024 1.922507867021524 71
-0.387176028134378 7.172181581003499 1.924578419382344 71
-0.360789003375362 7.171623066289590 1.924060781292139 71
-0.337367724034003 7.180498945358909 1.926131333652959 71
-0.310629651338387 7.172037018584763 1.923543143201934 71
-0.286998995108401 7.176888287026246 1.924578419382344 71
-0.260762573162667 7.179822563959449 1.925096057472549 71
-0.238333347406560 7.184467920523709 1.926131333652959 71
-0.212284224071034 7.194948255932816 1.928719524103985 71
-0.188221468716323 7.187887896899567 1.926648971743164 71
-0.163217568072654 7.192363830186831 1.927684247923575 71
-0.139478203850597 7.198660000490335 1.929237162194190 69
-0.113244580174717 7.208780928280332 1.931825352645215 75
-0.087915338867871 7.195610354929223 1.928201886013780 69
-0.062763719044663 7.192009842423398 1.927166609833369 69
-0.038903357585850 7.190246606928691 1.926648971743164 67
-0.012596729062990 7.217386781309272 1.933895905006035 75
0.012596729062989 7.217386781309272 1.933895905006035 71
0.037769803491038 7.213435189386542 1.932860628825625 69
0.039383687814305 10.745280899993265 2.480760227304144 39
0.076849643537193 10.739231890631258 2.479410520978080 39
0.112543424434430 10.746712533203619 2.481210129412831 38
0.149892514127666 10.734562909644287 2.478510716760705 39
0.187566279372225 10.745664948459059 2.481210129412831 37
0.225237752550271 10.752738004647011 2.483009737847582 38
0.259205035912007 10.759770037597729 2.484809346282333 37
0.296976991420037 10.766591687850337 2.486608954717084 36
0.338254233511613 10.763424233887875 2.486159052608396 34
0.375891544835469 10.764125484814921 2.486608954717084 32
0.410447413028840 10.782364767249522 2.491107975803961 25
0.447920539037057 10.776972230309966 2.490208171586586 23
0.487329047350481 10.773311383190169 2.489758269477898 30
0.525311376169588 10.779330373408092 2.491557877912649 21
0.560750105892284 10.771690794898690 2.490208171586586 18
0.598238804906029 10.767722047483907 2.489758269477898 16
0.636510886405128 10.777240305118877 2.492457682130024 16
0.674369964689032 10.778842683516663 2.493357486347400 15
0.708956994903299 10.759046418318091 2.489308367369210 15
0.746508756301234 10.756506148787869 2.489308367369210 15
0.784051421725557 10.753834814624772 2.489308367369210 14
0.821584533730738 10.751032448378162 2.489308367369210 14
0.859418174526777 10.751984173326171 2.490208171586586 14
0.897268466567329 10.752802720769585 2.491107975803961 14
0.935489268290842 10.735852156668939 2.487958661043147 14
0.973310570286979 10.736402846096484 2.488858465260523 13
1.006172761663757 10.704013389895410 2.482109933630207 12
1.031614274696587 10.578245029819030 2.453766100782879 13
1.083618587854965 10.723872322015392 2.488408563151835 14
1.120842602162367 10.718086282640121 2.487958661043147 14
1.157633554970074 10.725935432974783 2.490658073695274 13
1.195714619758738 10.727639431506280 2.492007780021336 10
1.066737029686612 9.247810726664786 2.149182373201286 5
1.089578827383407 9.164691180237241 2.130736386745089 17
1.146213205020064 9.375739200808658 2.180675520809428 5
1.154124244468213 9.174463912016030 2.134785505723279 7
1.185540077153583 9.178316990354006 2.136585114158029 2
1.418576800638011 10.688654719506909 2.489308367369210 14
1.456667905190058 10.689430526175180 2.490658073695274 13
1.172563006248131 8.385693563220910 1.954824662248187 22
1.532844981288861 10.676804274945802 2.490208171586586 14
1.571806655079965 10.682956501619365 2.492907584238712 15
1.607223973137508 10.677685464398040 2.492907584238712 15
1.580083891767283 10.254066424475859 2.395278826653474 18
1.674712982444375 10.633772937895522 2.485259248391021 13
1.713371014311830 10.637482030139481 2.487508758934459 14
1.753615576884053 10.638821939512630 2.489308367369210 14
1.790417664672521 10.630714187011597 2.488858465260523 13
1.824211340600168 10.605194346968421 2.484359444173645 14
1.861219263536386 10.598762050597527 2.484359444173645 13
1.895668954866420 10.588695265719190 2.483459639956270 15
1.931918625696102 10.578179573332292 2.482559835738894 15
1.970319479644628 10.569111950656366 2.482109933630207 14
2.006836740353393 10.560255384483671 2.481660031521519 15
2.040364104287856 10.545889369984002 2.479860423086768 15
2.077163697345628 10.538702920968850 2.479860423086768 16
2.114705012016946 10.535209319552049 2.480760227304144 15
2.149906141420119 10.520126322111285 2.478960618869392 15
1.759610075997712 8.459651660812728 1.994865949921395 10
2.222086983145747 10.499141374673476 2.477610912543329 10
2.255030895249019 10.474175085174357 2.473561793565139 13
2.294496466765858 10.479565260538903 2.476711108325953 15
2.325293711594747 10.462793554109606 2.474461597782515 15
2.360513254867345 10.448910505212123 2.473111891456452 16
2.398280531072320 10.446305102541237 2.474461597782515 18
2.433844973133158 10.434074309691747 2.473561793565139 18
2.472049061908182 10.433099988258908 2.475361401999890 15
2.506628650772215 10.416828733378633 2.473561793565139 15
2.537887097588951 10.387191900419344 2.468612870369574 16
2.575067966901026 10.382052596471212 2.469512674586950 16
2.612243869096815 10.376780240177295 2.470412478804326 16
2.651825955998598 10.380815341412589 2.473561793565139 15
2.684769647240358 10.366304999225418 2.472212087239076 14
2.040084878150124 7.765296710940565 1.853596687793448 10
2.059150515953407 7.727999523814265 1.846398254054444 15
2.083063849513865 7.709476997894230 1.843698841402317 15
2.106872998972650 7.690881826522983 1.840999428750191 23
2.131620616255244 7.675969878087542 1.839199820315440 27
2.152065947497614 7.645972146713405 1.833800995011188 28
2.171793376313095 7.614051486428562 1.827952267598247 28
2.194326834848625 7.597446622698029 1.825702757054808 27
2.217002593633370 7.576648497179028 1.822553442293994 26
2.238452341855354 7.552048009601370 1.818504323315805 27
2.257516153863107 7.519924501329063 1.812655595902864 30
2.275249408616542 7.484031253529116 1.805907064272548 30
2.304799690843816 7.487218508679467 1.808606476924675 37
2.325702439429161 7.462383326063763 1.804557357946485 57
2.358772711299904 7.476520976439463 1.809956183250738 67
2.384856269376710 7.468241773612247 1.809956183250738 68
2.418701432414697 7.483977545880586 1.815804910663678 73
2.448445159101519 7.486602322078691 1.818504323315805 73
2.478236636974198 7.489110502807077 1.821203735967931 76
2.508004550709917 7.495635487197475 1.824802952837433 75
2.534153921709318 7.486835251586686 1.824802952837433 75
2.567847185301029 7.500067885308013 1.830201778141686 77
2.598475302231338 7.503948951975018 1.833351092902500 78
2.629183234858781 7.503570213049681 1.835600603445938 76
2.663169446031602 7.516389133424720 1.840999428750191 76
2.688080047605036 7.507516417631679 1.840999428750191 77
2.720902906597374 7.516411300914750 1.845498449837069 75
2.755159942923748 7.528828392637385 1.850897275141321 75
2.788184547296265 7.537442239524027 1.855396296228198 75
2.819255386385145 7.540441053294685 1.858545610989013 72
2.846248092363516 7.532377013864857 1.858995513097700 73
2.877389982114688 7.535139516353087 1.862144827858515 70
2.907884238845917 7.535958148245371 1.864844240510641 72
2.942666512994530 7.547549315378596 1.870243065814894 70
2.973993958498702 7.549923504461095 1.873392380575708 67
3.002491612106490 7.544928245306867 1.874742086901771 66
3.034624884435309 7.548866521360197 1.878341303771273 70
3.066089001303242 7.550866658103761 1.881490618532087 75
3.100561840926432 7.559950934099856 1.886439541727652 71
3.138118363093366 7.576087912512062 1.893188073357968 75
3.161536604232389 7.557896531102695 1.891388464923217 76
3.164049901871051 7.497655355054534 1.878791205879961 40
3.175687517235774 7.452502644591561 1.870243065814894 43
3.190404915416541 7.408037332233536 1.862144827858515 38
3.189824371759522 7.336093808383712 1.846848156163132 42
3.192210747916966 7.275508929779300 1.834250897119875 43
3.197068243196450 7.217995400270568 1.822553442293994 42
3.206335882029322 7.171211266048850 1.813555400120239 43
3.216919304852721 7.128003270317509 1.805457162163860 42
3.221585584589842 7.072395223581057 1.794209609446667 45
3.222647069647323 7.009759639051703 1.781162448294723 43
3.230692446186762 6.963113070734218 1.772164406120968 42
3.240104328565246 6.920025902722465 1.764066168164589 41
3.246390258706455 6.874001030062977 1.755068125990835 43
3.250245056583530 6.820406408775348 1.744270475382329 42
3.253256922732900 6.762788930842834 1.732573020556448 43
3.261527311863754 6.719834991883599 1.724474782600069 42
3.262681479750252 6.662904725955296 1.712777327774188 43
3.274698846293211 6.628762042746346 1.706928600361248 45
3.275217894465738 6.571943023716676 1.695231145535367 43
3.276255750499478 6.516942804447366 1.683983592818173 45
3.285263149992390 6.484019541057340 1.678134865405233 45
3.295460964453688 6.448218717766056 1.671836235883605 45
3.293841558193845 6.389908028650181 1.659688878949036 43
3.301743666718800 6.350707054161123 1.652490445210032 47
3.304177152165935 6.298871383886634 1.642142696710214 39
3.307007466322515 6.251125775656890 1.632694752427772 38
3.314881049752335 6.216051743461337 1.626396122906144 38
3.319022376582056 6.171832982847532 1.617847982841077 41
3.323824564898771 6.129374521157861 1.609749744884698 41
3.331175789828818 6.092087570575734 1.603001213254382 42
3.333716912090242 6.044003270101063 1.593553268971940 41
3.342481201582508 6.010189490006157 1.587704541558999 43
3.350097111204383 5.974688668614735 1.581405912037371 42
3.355588041614128 5.935815336602525 1.574207478298367 43
3.344324881410397 5.872748438284558 1.560260512929048 40
3.356072033392635 5.845828478840049 1.556211393950858 42
3.363767557560040 5.812151703191513 1.550362666537918 40
3.369304984542879 5.775126260407470 1.543614134907602 42
3.373650171272152 5.734184997538328 1.535965799059910 45
3.372770861267780 5.687174690162823 1.526517854777468 42
3.372604602062554 5.641913488923920 1.517519812603713 42
3.382220854412279 5.613414840933853 1.513020791516836 42
3.386659581914162 5.578846583549460 1.506722161995208 42
3.395942221196112 5.550368101776415 1.502223140908330 42
3.395799738933630 5.504713156701937 1.493225098734576 39
3.396473478660925 5.463036711953166 1.485126860778197 39
3.399141691299980 5.429215304710698 1.478828231256569 39
3.403514216360116 5.394243556889968 1.472529601734940 37
3.408619511661109 5.358712882852148 1.466230972213312 37
3.412581143581595 5.323813247403980 1.459932342691684 37
3.417531849896695 5.292821960139810 1.454533517387431 38
3.423232996233115 5.261259212175528 1.449134692083178 39
3.427687109392294 5.228091688588850 1.443285964670238 40
3.427654897329177 5.188453575346329 1.435637628822547 39
3.427387947381383 5.148879726435061 1.427989292974855 42
3.431228662364313 5.115845001400340 1.422140565561915 38
3.435971816605211 5.084461084215945 1.416741740257662 37
3.444924880386595 5.059549859136240 1.413142523388160 38
3.449560953311501 5.030419466979396 1.408193600192595 41
3.447160787563713 4.989488098124673 1.400095362236216 42
3.448105430649763 4.955634733008251 1.393796732714587 44
3.454196946066278 4.927611117595665 1.389297711627710 43
3.456492347415377 4.892635096872919 1.382999082106082 41
3.459990047052329 4.861487674237010 1.377600256801830 44
3.463312578588903 4.830375680460465 1.372201431497577 40
3.466460232792392 4.799299958345181 1.366802606193324 40
3.476312550649816 4.777715932071022 1.364103193541197 42
3.479144298213962 4.746691204611811 1.358704368236945 44
3.479486951066427 4.712569710386080 1.352405738715317 45
3.474982064078070 4.672249243965799 1.344307500758937 43
3.478417352144174 4.642935205773361 1.339358577563372 45
3.487559824827593 4.621431893375397 1.336659164911246 46
3.490698195956902 4.592164406557412 1.331710241715681 43
3.492490196608442 4.561384247494465 1.326311416411428 42
3.494110017926393 4.530647758243952 1.320912591107175 40
3.497948929942411 4.503033710309214 1.316413570020298 41
3.502838616221165 4.476983044009742 1.312364451042109 45
3.502764443586989 4.444830921042159 1.306515723629168 43
3.509777808337104 4.421892325728660 1.303366408868354 45
3.505722235864865 4.385259876587902 1.296167975129350 46
3.503898219869069 4.351745665369230 1.289869345607722 45
