# This PCD file was generated using the MATLABÂ® pcwrite function
# from Computer Vision ToolboxÂ®.
# .PCD v.7 - Point Cloud Data file format
VERSION .7
FIELDS x y z intensity
SIZE 8 8 8 1
TYPE F F F U
COUNT 1 1 1 1
WIDTH 890
HEIGHT 1
VIEWPOINT 0 0 0 1 0 0 0
POINTS 890
DATA ascii
-1.642353391270387 -1.083343851379037 0.311617454360140 31
-1.637861281715193 -1.072194707605659 0.310053109709738 34
-1.641966129855077 -1.065897883274032 0.310053109709738 37
-1.650658671608385 -1.063369221913272 0.310991716499979 39
-1.644007343119612 -1.051790891695506 0.309114502919496 36
-1.646183441275352 -1.044699779130974 0.308801633989416 38
-1.641462343684242 -1.033684005054858 0.307237289339013 36
-1.646735788302734 -1.028994724802625 0.307550158269094 37
-1.649960338944501 -1.023816282376287 0.307550158269094 37
-1.653701730741686 -1.017761998647329 0.307550158269094 38
-1.652010483589711 -1.009183193780703 0.306611551478852 39
-1.647076579160305 -0.998291011673324 0.305047206828450 37
-1.645472611367953 -0.989481603982980 0.304108600038209 40
-1.650612938121832 -0.984743874180491 0.304421468968289 42
-1.659140095488277 -0.981994586378100 0.305360075758531 40
-1.657617296751207 -0.972907224118729 0.304421468968289 42
-1.650425103224882 -0.961727587301610 0.302544255387806 42
-1.653938925456806 -0.955672017164165 0.302544255387806 42
-1.657098954152001 -0.950182103430801 0.302544255387806 43
-1.662287654555731 -0.945078470689871 0.302857124317887 44
-1.658367306057080 -0.935967900590092 0.301605648597565 46
-1.654891280635218 -0.926024956528038 0.300354172877243 44
-1.646023216919615 -0.913532563501386 0.298164090366680 47
-1.661315773365991 -0.914449163158120 0.300354172877243 44
-1.662763823582177 -0.907698013059446 0.300041303947163 43
-1.658973570410208 -0.898126567488449 0.298789828226841 43
-1.649915589132553 -0.885789557162660 0.296599745716278 49
-1.649510183313692 -0.878168287868572 0.295974007856117 51
-1.659094156177860 -0.876962708927369 0.297225483576439 49
-1.660547454801445 -0.869959222961804 0.296912614646358 52
-1.660068110911123 -0.862336334489192 0.296286876786197 48
-1.649018962910729 -0.849300574101645 0.293783925345554 48
-1.653732819006820 -0.844437587354182 0.294096794275634 51
-1.660341871659464 -0.840154449054348 0.294722532135795 49
-1.662827348075851 -0.835224424656331 0.294722532135795 51
-1.663964401151270 -0.828534502547959 0.294409663205714 52
-1.650904181087313 -0.814852388895775 0.291593842834990 51
-1.659061681419287 -0.811689043391907 0.292532449625232 52
-1.661884897355815 -0.805892892298296 0.292532449625232 52
-1.661266351605561 -0.798085572260051 0.291906711765071 52
-1.664042069134725 -0.792281808308337 0.291906711765071 52
-1.649068354042607 -0.777751128213155 0.288778022464266 55
-1.656871423419843 -0.775077648360543 0.289716629254508 49
-1.668662765113863 -0.773151971195550 0.291280973904910 52
-1.663903719582014 -0.764606632291359 0.290029498184588 52
-1.664897021915391 -0.757684750506878 0.289716629254508 49
-1.652995253528742 -0.745661448036630 0.287213677813864 51
-1.662801918290495 -0.743110782942858 0.288465153534186 51
-1.660223331448795 -0.734323480920069 0.287526546743944 48
-1.666395148916516 -0.730109216860696 0.288152284604105 52
-1.665183213390504 -0.723005775052991 0.287526546743944 47
-1.653179338212196 -0.710945585701653 0.285023595303301 31
-1.657345093348804 -0.706233915732909 0.285336464233381 19
-1.656282257196814 -0.698619271694576 0.284710726373220 11
-1.667702986459069 -0.696931368691294 0.286275071023622 3
-1.721233238447789 -0.712254344304362 0.295035401065875 1
nan nan nan 0
nan nan nan 0
nan nan nan 0
nan nan nan 0
nan nan nan 0
-5.543785799539239 -2.160317186147221 0.942361217402351 5
-5.556822115376374 -2.143085023918155 0.943299824192592 16
-5.572022196974197 -2.125520048896193 0.944551299912914 16
-5.571648133933812 -2.104239176830928 0.943299824192592 16
-5.581173654147761 -2.084495077380780 0.943612693122673 16
-5.557692871070310 -2.056955819692546 0.938606790241385 16
-5.561484531309076 -2.035214326154298 0.937981052381224 16
-5.566345660436076 -2.016087886548575 0.937668183451144 16
-5.571837844906614 -1.995006778034984 0.937355314521063 16
-5.580284846838366 -1.977178647944982 0.937668183451144 16
-5.570374255569504 -1.951808830836527 0.934852363080420 16
-5.573757317332424 -1.930086521431831 0.934226625220259 16
-5.580460619342992 -1.910618718816395 0.934226625220259 16
-5.587095925202003 -1.891127635914814 0.934226625220259 16
-5.586169968321481 -1.869106325343415 0.932975149499937 16
-5.592014362741780 -1.851547660014515 0.932975149499937 16
-5.587497946854713 -1.827355282264758 0.931097935919454 16
-5.599481520407084 -1.809662561273050 0.932036542709695 16
-5.602000786779006 -1.788903881581385 0.931410804849535 18
-5.607902204124659 -1.770317141526721 0.931410804849535 18
-5.601151705959666 -1.745636965695040 0.929220722338971 16
-5.603133952976518 -1.725890280348826 0.928594984478810 18
-5.609124298116652 -1.706321178171972 0.928594984478810 18
-5.611262573926961 -1.685594673632011 0.927969246618650 18
-5.619006045819517 -1.666559141163641 0.928282115548730 18
-5.613414489855703 -1.643604490954938 0.926404901968247 18
-5.615605287044477 -1.621922994294567 0.925779164108086 18
-5.616873952670926 -1.603188740513296 0.925153426247925 16
-5.628416682057037 -1.584196704795618 0.926092033038167 18
-5.627929351319098 -1.563936812810132 0.925153426247925 18
-5.620287389413075 -1.539645519761451 0.922963343737362 18
-5.623455233279465 -1.520483916600137 0.922650474807282 16
-5.636625431174754 -1.501897111804033 0.923901950527603 16
-5.639664453957833 -1.482694862444172 0.923589081597523 16
-5.635244680905140 -1.460521746085256 0.922024736947121 16
-5.640559909857209 -1.439857731780897 0.922024736947121 16
-5.724095060112201 -1.439917637242512 0.934852363080420 10
-5.748011345750615 -1.425683385081001 0.937981052381224 10
-5.791331495631766 -1.414987382685309 0.944238430982834 5
-5.820958088158732 -1.401787139296951 0.948305727073880 5
-5.833745423201767 -1.382264611387447 0.949557202794201 5
-5.830839947056070 -1.360097702304526 0.948305727073880 5
-5.843253207993653 -1.341504031262498 0.949557202794201 5
-5.851523156555678 -1.322990977891424 0.950182940654362 5
-5.860189513817858 -1.302392306104689 0.950808678514523 5
-5.845178793137183 -1.278730430662859 0.947679989213719 5
-5.851537985150348 -1.258734582527612 0.947992858143799 5
-5.853747358072093 -1.238914244775594 0.947679989213719 5
-5.861904279994187 -1.219277843719275 0.948305727073880 5
-5.860109399484458 -1.198644803717681 0.947367120283638 5
-5.856716311839566 -1.175603347113679 0.946115644563316 5
-5.872412792389867 -1.157444398960142 0.947992858143799 5
-5.874676117227795 -1.135538266954154 0.947679989213719 5
-5.880350106462044 -1.116419350575844 0.947992858143799 5
-5.876634302654725 -1.093413932446764 0.946741382423477 5
-5.862551804567835 -1.071749444628648 0.943925562052753 5
-5.866440585025032 -1.050254919376510 0.943925562052753 5
-5.889527567200969 -1.033184049515374 0.947054251353558 5
-5.877523415891652 -1.009943234780135 0.944551299912914 5
-5.888631964092963 -0.991759396762701 0.945802775633236 5
-5.872567210815299 -0.967985496489667 0.942674086332431 5
-5.884041890659992 -0.946684510416105 0.943925562052753 5
-5.891213346785853 -0.926753551104646 0.944551299912914 5
-5.890032581894689 -0.908667550604941 0.943925562052753 5
-5.893323452746857 -0.887073398658338 0.943925562052753 5
-5.888566466694806 -0.865347637816596 0.942674086332431 5
-5.899372726910864 -0.845908956261645 0.943925562052753 5
-5.908158590921552 -0.826131809674760 0.944864168842994 5
-5.907232164636096 -0.803939014194375 0.944238430982834 5
-5.905812337205672 -0.784856498404048 0.943612693122673 11
-5.900679789282971 -0.763223008224619 0.942361217402351 15
-5.907227845016532 -0.743114250479751 0.942986955262512 13
-5.917628922190052 -0.723448494859786 0.944238430982834 15
-5.908348557840895 -0.701390515330355 0.942361217402351 13
-5.924616701333902 -0.681310343461936 0.944551299912914 15
-5.924764717879106 -0.662474771768708 0.944238430982834 15
-5.925189079732742 -0.640542662684750 0.943925562052753 15
-5.925315989729680 -0.620684708391929 0.943612693122673 13
-5.917724271676206 -0.597970194537311 0.942048348472270 13
-5.903845783685954 -0.577836836287096 0.939545397031627 9
-5.917724054538911 -0.557305555830764 0.941422610612109 5
-5.935371834708524 -0.538072222895939 0.943925562052753 3
-3.319880624517403 -0.289284227364617 0.527809885045739 1
-3.232287403939949 -0.270286552998778 0.513730783192118 6
nan nan nan 0
nan nan nan 0
-3.193567993010537 -0.233400225122596 0.507160535660429 71
-3.174618528901109 -0.221434174898697 0.504031846359624 52
-3.171466643763085 -0.209536673218663 0.503406108499463 53
-3.166229553577286 -0.198647486215854 0.502467501709222 50
-3.155072152380793 -0.186893222730034 0.500590288128739 50
-3.161591454793160 -0.176760404333726 0.501528894918980 53
-3.164190765773149 -0.165274444040209 0.501841763849061 50
-3.166640200872529 -0.155982572733085 0.502154632779141 52
-3.177031948250530 -0.145379474386082 0.503718977429543 57
-3.167675303788084 -0.133318770432056 0.502154632779141 53
-3.162199652385331 -0.122032183238629 0.501216025988900 50
-3.172477165359946 -0.111339724130823 0.502780370639302 52
-3.176812740837455 -0.099835362363465 0.503406108499463 53
-3.179100936489824 -0.089355623140701 0.503718977429543 57
-3.167558365748144 -0.077413459009475 0.501841763849061 50
-3.177672342708676 -0.067117600596155 0.503406108499463 58
-3.175921921380076 -0.055435923344639 0.503093239569382 48
-3.182005928794396 -0.045543023314492 0.504031846359624 53
-3.184126744130602 -0.033901113132132 0.504344715289704 57
-3.174336722812931 -0.024377635264114 0.502780370639302 53
-3.180328555548178 -0.013321807016222 0.503718977429543 57
-3.184306773580783 -0.001667299280143 0.504344715289704 50
-3.192194665599363 0.009471460031318 0.505596191010026 57
-3.196099836992929 0.019524105734359 0.506221928870187 57
-3.178234642385279 0.030509799533058 0.503406108499463 53
-3.189960025092563 0.041758864200420 0.505283322079946 53
-3.189785544859573 0.053450371680394 0.505283322079946 53
-3.199476813329208 0.063667603212158 0.506847666730348 55
-3.193310570205623 0.074696889383395 0.505909059940107 53
-3.191085463450964 0.084676186664849 0.505596191010026 50
-3.186804723239277 0.096252259118711 0.504970453149865 50
-3.194346349399403 0.107641807907790 0.506221928870187 50
-3.193951148319196 0.118791501722306 0.506221928870187 50
-3.203408447653862 0.129782194171419 0.507786273520589 52
-3.189121642453277 0.140355410555735 0.505596191010026 48
-3.188638672266112 0.150930147303840 0.505596191010026 50
-3.197928127769933 0.163119222308460 0.507160535660429 47
-3.205259491158350 0.174151718404092 0.508412011380750 52
-3.204599664093725 0.185898411973220 0.508412011380750 53
-3.201993911640150 0.196403287295059 0.508099142450670 50
-3.203223765057456 0.208266026165852 0.508412011380750 52
-3.214340190295707 0.219695352563997 0.510289224961233 53
-3.221394463847270 0.232042711241669 0.511540700681555 58
-3.238420379320996 0.242929652470529 0.514356521052279 70
-3.211951581454166 0.252222015856164 0.510289224961233 27
-3.224786707270285 0.265125728713956 0.512479307471796 31
nan nan nan 0
nan nan nan 0
nan nan nan 0
nan nan nan 0
nan nan nan 0
nan nan nan 0
nan nan nan 0
nan nan nan 0
nan nan nan 0
nan nan nan 0
nan nan nan 0
nan nan nan 0
-15.281771204966361 1.952218399836442 2.440064785697521 2
-15.204355179314655 1.996292271780966 2.428801504214624 2
-15.114716604380201 2.040903686639784 2.415661009151245 2
nan nan nan 0
nan nan nan 0
nan nan nan 0
nan nan nan 0
nan nan nan 0
nan nan nan 0
-11.097404438651418 1.771557036973134 1.779911343227747 1
nan nan nan 0
-11.049372237071870 1.845066043254428 1.774279702486299 1
-11.027286424453038 1.880967106976583 1.771776751045655 2
-13.114635978341006 2.284153360292780 2.108423719812232 1
nan nan nan 0
nan nan nan 0
-12.604391644704982 2.331535306584111 2.030206487292116 1
-12.429236662709407 2.344035421389389 2.003299759305197 1
-12.296827137753784 2.363544386265866 1.983276147780047 1
-12.191990654666570 2.385344719195154 1.967632701276024 1
-11.989444205603805 2.391375451809357 1.936345808267978 1
nan nan nan 0
nan nan nan 0
nan nan nan 0
nan nan nan 0
nan nan nan 0
nan nan nan 0
nan nan nan 0
nan nan nan 0
nan nan nan 0
nan nan nan 0
nan nan nan 0
-4.405069303967551 1.071396902516431 0.718034194534660 4
-4.386149311027950 1.082213131284856 0.715531243094016 11
-4.368931573895988 1.094157799968625 0.713341160583453 13
-4.357427588425939 1.107455232655493 0.712089684863131 15
-4.338232892518798 1.118712670000117 0.709586733422487 18
-4.332390358906272 1.133349179734113 0.709273864492407 18
-4.337954392143614 1.150998146003968 0.710838209142809 18
-4.347467036445364 1.168967502680395 0.713028291653372 18
-4.343153355271014 1.184893914196542 0.713028291653372 15
-4.339200225324297 1.199289814785169 0.713028291653372 13
-4.344498209618062 1.217093534107334 0.714592636303775 11
-4.378445635071585 1.242277375119379 0.720850014905384 6
-4.421322503221332 1.271970447974064 0.728671738157395 2
nan nan nan 0
-15.487693003741109 4.572966018955786 2.557703503407775 2
-15.465679193010658 4.619338061780047 2.556452027687452 2
-15.494838889594220 4.687021696242105 2.563960882009384 2
-15.489716287543922 4.744551422275484 2.565838095589867 2
-15.540141144000469 4.822368475846022 2.577101377072764 2
nan nan nan 0
-10.950462763428346 3.482107419911164 1.819958566278046 2
-10.980842652549319 3.529791510296047 1.826841682739816 1
-10.982858563644687 3.574905870141441 1.829344634180460 2
-10.978448709721230 3.613777222026342 1.830596109900782 2
-12.441889734211427 4.146102560774175 2.077136826804185 1
-12.498472374614199 4.213487310427619 2.089025846147243 1
-12.506124277757266 4.264740352816609 2.092780273308208 1
-12.490409221747496 4.310548944268827 2.092780273308208 1
-12.568538755843486 4.386669233096272 2.108423719812232 1
nan nan nan 0
nan nan nan 0
-15.307313341124402 5.517008498174044 2.577101377072764 2
nan nan nan 0
-15.083060737908818 5.555464282063193 2.545814484064717 2
-15.063576657482827 5.608080143584337 2.545814484064717 2
-14.860001884187753 5.588467678688970 2.514527591056671 2
nan nan nan 0
-14.636220266639098 5.621249677961116 2.483240698048625 2
-14.550212898938437 5.646577392328435 2.471977416565728 2
-14.412714172914654 5.651182947650172 2.451953805040579 2
-14.256996699569342 5.647622894775614 2.428801504214624 2
-14.189512447342429 5.678272995172490 2.420666912032532 2
-14.131979649234435 5.715429450050253 2.414409533430923 2
-14.033480889957328 5.726957469279085 2.400643300507383 2
-13.764033725074464 5.675935907323725 2.358093126016440 2
-13.745135963996654 5.721547879750710 2.358093126016440 2
-13.724073119278090 5.771887890954099 2.358093126016440 2
-13.589489878567782 5.765597261837689 2.338069514491290 2
-12.119387094451545 5.194375943513124 2.088400108287082 1
-13.352090153034716 5.777965363989456 2.304279670042601 1
-6.771814423976794 2.958532975898163 1.170442667431007 1
-6.721165855211847 2.965788717707763 1.163559550969237 1
-6.656638688878871 2.965118705331439 1.154173483066823 3
-6.603526661068118 2.967742553818961 1.146664628744892 3
-6.528365117748491 2.961397756128072 1.135401347261996 1
-6.450252236310654 2.951794392735304 1.123512327918938 1
-6.374834755266845 2.945587191332828 1.112249046436041 1
nan nan nan 0
-3.741588582818108 1.759062941178877 0.654834670658406 2
nan nan nan 0
-6.194132744809521 2.967731155016729 1.087845269889765 1
-6.135490335820510 2.962049633555696 1.079084939847513 3
-6.116233923737211 2.979123353782482 1.077520595197110 9
-6.125299256756258 3.010038178833875 1.080962153427995 16
-6.114754945308229 3.031401125170484 1.080962153427995 17
-6.118270161949514 3.059795678134449 1.083465104868639 17
-6.122885890934315 3.090210044326859 1.086280925239363 16
-6.124928519276863 3.116768438469049 1.088471007749926 17
-6.138065316118674 3.151829070434168 1.092851172771053 17
-6.131642087301451 3.172912472658195 1.093476910631214 17
-6.132229050526192 3.201764624706555 1.095666993141777 19
-6.146050226750138 3.234963193002711 1.100047158162903 19
-6.158577164022591 3.270438441949953 1.104427323184030 19
-6.156405925110831 3.295504288563599 1.105991667834432 19
-6.150079839796970 3.319789049208131 1.106930274624674 19
-6.154069206483562 3.349736080119335 1.109746094995398 17
-6.156192550662939 3.378800872774876 1.112249046436041 16
-6.158187801312540 3.407921211970044 1.114751997876685 11
-6.160054596841851 3.437096557001786 1.117254949317329 1
-9.848060759848069 5.535517866005276 1.789297411130161 1
-10.893133040619984 6.175593273605378 1.983276147780047 1
-10.872594141192312 6.211682249001263 1.983276147780047 1
-10.850845084194702 6.249596841433409 1.983276147780047 1
-10.830061012606139 6.285545178015609 1.983276147780047 1
-10.806950594446768 6.325197117152430 1.983276147780047 1
-10.785916064656409 6.360999478685216 1.983276147780047 1
nan nan nan 0
nan nan nan 0
-12.744430478092967 7.697036091775137 2.358093126016440 2
-12.739754085215425 7.758079001748505 2.362473291037567 2
-12.738167880187138 7.821258039633399 2.367479193918854 2
-12.738430044531420 7.873558736809430 2.371859358939981 2
-12.786605083186499 7.968252696672037 2.386251329723682 2
-12.798860831031897 8.038051854097194 2.393760184045613 2
-12.792679555516399 8.099702010324258 2.398140349066739 2
-12.813808569517230 8.169585978779557 2.406900679108992 2
-12.810367340568650 8.233584835261256 2.411906581990280 2
-12.829422697715767 8.306079757883762 2.420666912032532 2
-12.833439574623370 8.372398889925202 2.426924290634142 2
nan nan nan 0
nan nan nan 0
nan nan nan 0
-12.905439137611836 8.678635736684399 2.463217086523475 2
-12.886402012479591 8.728030549004570 2.465094300103958 2
-12.867377358959969 8.784112915160753 2.467597251544602 2
-12.872443208279584 8.853602473454963 2.474480368006372 2
-12.886922187766071 8.929984779495291 2.483240698048625 2
-12.860369703823764 8.968181683960630 2.483240698048625 2
-12.908220987834628 9.072049656022008 2.498884144552648 2
-12.891003360738473 9.130717394195377 2.502012833853453 2
nan nan nan 0
-12.942469119714426 9.296682684020050 2.523913658959085 2
-12.925942186251060 9.353383963453886 2.527042348259890 2
-12.854903134326214 9.370520390032505 2.519533493937959 2
-12.715399328562576 9.340389389489808 2.498884144552648 2
-12.662121815489217 9.366057709933964 2.494503979531522 2
-12.570691328078695 9.369904544322857 2.483240698048625 2
-12.539550486968935 9.411538940062467 2.483240698048625 2
nan nan nan 0
nan nan nan 0
-9.340026633271364 7.164264896205754 1.864385954349472 1
-9.294330314818966 7.178293840649202 1.860005789328345 1
-9.234915209912719 7.184009564653333 1.853122672866575 1
-9.171209530177753 7.188562400534185 1.845613818544644 1
-9.111951153339648 7.193603518708137 1.838730702082874 1
-9.089877598918497 7.227825200122084 1.839356439943035 1
-9.089262155102453 7.279267890673752 1.844362342824322 1
-9.111205945379670 7.346566752613516 1.853748410726736 1
nan nan nan 0
-3.890908620336681 3.183537933353856 0.796251427054775 6
-3.869101015002181 3.188306747602830 0.794061344544212 10
-3.849942490719366 3.192880066774010 0.792184130963729 10
-3.821539434962737 3.193037034076406 0.788742572732844 12
-3.832093365224269 3.223494495584224 0.793122737753971 46
-3.795195081088765 3.215144663576547 0.787803965942603 38
-3.761407614181636 3.209141010951681 0.783110931991396 42
-3.724712028201478 3.200366176320098 0.777792160180028 34
-3.707542884001512 3.208178038804676 0.776540684459706 34
-3.686825272349602 3.213957049814083 0.774663470879223 34
-3.655361166022021 3.207923685914997 0.770283305858097 31
-3.637659279686866 3.216066076613319 0.769031830137775 40
-3.611303879972693 3.213034674891591 0.765590271906890 36
-3.589206359267789 3.217020028134938 0.763400189396327 34
-3.582918419695457 3.232874541712233 0.764338796186568 38
-3.535963374373469 3.214096366661486 0.756829941864637 36
-3.552651757618916 3.248567965140493 0.762461582606085 44
-3.550009306515411 3.268977841512243 0.764338796186568 61
-3.546119113235793 3.290646784618558 0.766216009767051 55
-3.547600595417518 3.315143444804195 0.769031830137775 59
-3.539465291737630 3.329596473539723 0.769657567997936 59
-3.543596078006908 3.356874822950402 0.773099126228821 55
-3.552458647585710 3.387692947843855 0.777479291249947 53
-3.564235699866799 3.423954887007492 0.782798063061315 57
-3.550242808265026 3.435621766627964 0.782485194131235 53
-3.563693681036162 3.472809122645988 0.788116834872683 55
-3.552765961246654 3.483987640505833 0.788116834872683 55
-3.556836349496797 3.513644701341264 0.791871262033649 57
-3.570997303786942 3.549869205535844 0.797502902775097 57
-3.575337040378585 3.579083086339382 0.801257329936062 55
-3.571797286507921 3.599332583841778 0.803134543516545 57
-3.573076767669344 3.625848591950374 0.806263232817350 55
-3.576977696643912 3.655240887853394 0.810017659978315 53
-3.589708561089539 3.695247513244654 0.815962169649844 51
-3.574691509610193 3.704288206135866 0.815336431789683 53
-3.589787036455406 3.747320968823411 0.821906679321373 55
-3.584806828286586 3.765733856308588 0.823471023971775 34
-3.591331978744570 3.800383521647671 0.828164057922982 6
nan nan nan 0
nan nan nan 0
nan nan nan 0
nan nan nan 0
nan nan nan 0
nan nan nan 0
-6.726563847045997 7.470605990326886 1.592189985179470 1
-6.721512028328226 7.517602100949532 1.597195888060757 1
nan nan nan 0
-4.008363826921705 4.548196288637826 0.960194746416937 1
-4.040906580702381 4.614265196763744 0.971458027899834 1
nan nan nan 0
nan nan nan 0
-6.769477172844846 7.900874898015200 1.647880654733792 1
-6.740881818300039 7.914910022137547 1.646629179013470 2
-6.720865850586709 7.947441908689505 1.648506392593953 2
-6.685461500665619 7.961776991974796 1.646629179013470 4
-6.666483894615586 7.995685556952473 1.648819261524034 5
-6.672397171784618 8.062677091362620 1.657579591566286 5
-6.680416121413740 8.132871690547411 1.666965659468700 5
-6.690872708913023 8.200897711791242 1.676351727371114 6
-6.679417147290044 8.248393242499931 1.681044761322321 4
-6.646041241542078 8.260102188371070 1.679167547741838 2
-6.628048479725927 8.299841487717401 1.682296237042643 2
-6.605398934857772 8.327965898719233 1.683547712762965 2
-6.565056163228062 8.339702757538307 1.681044761322321 2
-6.544664855033693 8.370764574498324 1.682921974902804 1
-6.515405561487272 8.393558720574367 1.682921974902804 1
-6.498125007461539 8.431897090521300 1.686050664203608 1
-6.468652605148225 8.454528409772344 1.686050664203608 1
-6.444789274331544 8.487619848276690 1.687927877784091 2
-6.419879034991348 8.516374245403556 1.689179353504413 2
-6.390724168857675 8.533338577876373 1.688553615644252 1
-6.366474927497020 8.566217170324274 1.690430829224735 1
-6.349763904404123 8.603175606457075 1.693559518525539 2
-6.322029538656504 8.628474884323413 1.694185256385700 2
-6.277928817920138 8.631320256411209 1.690430829224735 2
-6.241626996336327 8.647865028450664 1.689179353504413 2
-6.226724359615772 8.687782396195797 1.692933780665379 2
-6.205521535990910 8.722341471977504 1.695436732106022 2
-6.179595140132588 8.750403935217662 1.696688207826344 2
-6.176225920799160 8.810742406211508 1.704197062148275 1
nan nan nan 0
nan nan nan 0
-6.116452445194119 8.919489136616443 1.712957392190528 1
-6.054829076058831 8.899383578669029 1.704822800008436 2
-5.682498871785070 8.411977307870149 1.607833431683493 1
-5.651629265437669 8.432748205775470 1.607833431683493 1
-6.021961266406068 9.050066662232636 1.721717722232781 1
-5.980044504315218 9.058888910804651 1.719214770792137 1
-5.945057188004275 9.067719158969856 1.717337557211654 1
nan nan nan 0
-5.907324836095038 9.148830205959364 1.724846411533586 1
-4.281025736832991 6.681200658947251 1.256794492133215 2
-1.211482662274690 1.905313997303963 0.357609187081968 1
-4.223737313637733 6.694218487634898 1.253665802832410 2
-4.214097787989041 6.728277506053781 1.257420229993376 26
-4.167518694518600 6.708440821250017 1.250849982461686 23
-4.130734156581030 6.698684372461842 1.246469817440560 24
-4.100109531016920 6.701267475254720 1.244279734929996 23
-4.072737973329060 6.706385006795073 1.242715390279594 24
-4.042015486984809 6.711114320455359 1.240838176699111 23
-4.009602907795270 6.707525903535814 1.237709487398307 24
-3.979111469523697 6.709587745402158 1.235519404887744 24
-3.952661331088605 6.718328858777739 1.234580798097502 24
-3.944121990269601 6.757676086871218 1.239273832048709 28
-3.939512410725219 6.801486332380526 1.244905472790157 20
-3.948006601927739 6.874120424103131 1.255543016412893 22
-3.949178195674140 6.934891466456985 1.263990477525065 20
-3.956755545898559 7.007803718548760 1.274628021147801 20
-3.973624006417800 7.086709888223158 1.286829909420939 22
-3.982175727050381 7.163381502239000 1.298093190903836 23
nan nan nan 0
-5.134027897857624 9.393055723855005 1.695436732106022 1
-5.095073833606873 9.391775131376992 1.692308042805218 1
-5.071618335665968 9.426899052433013 1.695436732106022 1
-5.044260324541021 9.455002017347189 1.697313945686505 1
-5.003835651419920 9.458583428154679 1.694810994245861 1
-4.959961377880453 9.459365206453867 1.691682304945057 1
-4.930556653067740 9.483631704424813 1.692933780665379 1
-4.924431686832783 9.549088632707322 1.701694110707631 1
-4.439923494782330 8.687585164356763 1.545259645667401 1
nan nan nan 0
-4.426808406160951 8.809388119961737 1.561528830031585 2
-4.443388292563567 8.915954795044545 1.577798014395769 2
nan nan nan 0
-4.467616246647219 9.115512093604766 1.607833431683493 1
-4.435769953210155 9.131051449759710 1.607833431683493 1
-4.421008625176003 9.182075886871802 1.614090810285102 2
-4.404243454215305 9.229542500993329 1.619722451026551 11
-4.370310497576096 9.241288437668741 1.619096713166389 9
-4.334734220408854 9.253666675459396 1.618470975306229 11
-4.297367985770162 9.253657425079105 1.615968023865585 9
-4.265899105854516 9.274729848702380 1.616906630655826 8
-4.237578005199166 9.294217204128886 1.617845237446068 9
-4.227058513410237 9.361896855095550 1.626918436418401 15
-4.242024407641999 9.474290362490306 1.644126227572826 13
-4.252906383587701 9.592708327679047 1.661959756587413 17
-4.243322061297451 9.657396764979604 1.670720086629666 13
-4.225351842058926 9.708375167447731 1.676977465231275 19
-4.224133879461723 9.803618858132614 1.690743698154815 15
-4.177481837274895 9.789234371738411 1.685737795273528 11
-4.147130501617253 9.812854635179509 1.687302139923930 2
-4.097599424011633 9.790826495795455 1.681044761322321 4
-4.076660157363354 9.827371129418401 1.685112057413367 5
nan nan nan 0
-3.996563484754791 9.832501452974999 1.681044761322321 2
nan nan nan 0
-3.922230202254180 9.841127165918396 1.677916072021516 2
-4.755677710836142 12.060643564831629 2.053358788118070 3
-3.848401498949411 9.855388998459748 1.675725989510953 5
nan nan nan 0
-3.771036783215326 9.859875084113893 1.671971562349988 8
nan nan nan 0
-3.698646730220402 9.876711805661188 1.670407217699585 1
-3.651446324509924 9.860562570149051 1.665401314818298 6
-3.625891703473391 9.886821972366958 1.667904266258942 11
-3.584916883087679 9.887045625433938 1.665714183748378 12
-3.550776170577344 9.895160688631067 1.665088445888217 11
-3.516465851276987 9.913693649520663 1.666027052678459 11
-3.483571523715599 9.925300161652610 1.666027052678459 12
-3.443933302183795 9.928669966500717 1.664462708028057 11
-3.408425056256763 9.932562158507062 1.663211232307735 12
-3.373733178809537 9.944399269685682 1.663211232307735 11
-3.337262472729649 9.956697825325211 1.663211232307735 12
-3.304350485487277 9.973911829472437 1.664149839097976 12
-3.273000262595897 9.984243516365042 1.664149839097976 12
-3.235084882287891 9.986211457707316 1.662585494447574 12
-3.199604568058916 9.995561831458586 1.662272625517493 12
-3.167114767677456 10.020406575680614 1.664462708028057 12
-3.130940238268974 10.027629618264267 1.663836970167896 11
-3.094171728885609 10.032834611675854 1.662898363377654 2
-3.056277473489746 10.027923567771031 1.660395411937011 9
-3.068433847178068 10.201741087387983 1.687302139923930 8
-3.107736474001764 10.458020465607028 1.727975100834390 1
-3.121259149814027 10.639399096583507 1.756133304541632 8
-3.142344134203208 10.851356233981154 1.789297411130161 9
-3.160901042850480 11.059789102353355 1.821835779858529 6
-3.464362422134240 12.267310110200238 2.018943205809220 7
-3.491442191163777 12.538730416941746 2.061493380300162 8
-3.523667298728683 12.818805878149480 2.105607899441508 9
-3.556215439708905 13.125256020792165 2.153789714673899 8
-3.590947478652687 13.439120529001723 2.203223005626612 7
-3.633200644625160 13.799862701003473 2.260165150901256 11
-3.610758745902633 13.901696004613493 2.274869990615037 35
-3.553417607832131 13.889958042661295 2.270802694523991 28
-3.510730697510136 13.904883417206952 2.271428432384152 31
-3.457880258940400 13.899800895388534 2.268612612013428 31
-3.408399454850966 13.907949262736048 2.267986874153267 35
-3.356586464782311 13.906320440843501 2.265796791642704 31
-3.308023898181530 13.917952392074113 2.265796791642704 31
-3.257170664629420 13.919797652533058 2.264232446992302 30
-3.210760166267424 13.918412695151865 2.262355233411819 31
-3.155792343736830 13.912749272668073 2.259539413041095 18
nan nan nan 0
-0.612331219547395 2.792011795143867 0.452721341826428 3
-0.612733248408468 2.836400131895431 0.459604458288198 19
-0.598232912497781 2.819303327904217 0.456475768987394 22
-0.583633426297861 2.796133508500518 0.452408472896348 24
-0.575853877734806 2.807829231350520 0.453972817546750 21
-0.564488777440967 2.802076338502947 0.452721341826428 11
nan nan nan 0
-0.543895040560649 2.798097415182621 0.451469866106106 1
-0.535854707693519 2.811714807298624 0.453347079686589 1
-0.529434764746362 2.829009646324887 0.455850031127233 2
-0.516924844739637 2.819273201699255 0.453972817546750 2
-0.504774483135462 2.805418628506887 0.451469866106106 3
-0.491404590145179 2.789741041034010 0.448654045735382 5
-0.489884014704993 2.836125949470126 0.455850031127233 22
-0.481789441038090 2.851536811756580 0.458040113637796 35
-0.466200779519117 2.816090623195593 0.452095603966267 26
-0.458894553104594 2.833300538692090 0.454598555406911 26
-0.443568081741240 2.803745673854062 0.449592652525624 26
-0.435287800264111 2.815037814104873 0.451156997176026 25
-0.429790457308365 2.841856964315087 0.455224293267072 25
-0.419002199819046 2.837477342924358 0.454285686476830 17
nan nan nan 0
-0.402756771988190 2.865763340889961 0.458352982567876 1
-0.392750937394535 2.867151765175127 0.458352982567876 1
-0.383262829633157 2.872421302249346 0.458978720428037 1
-0.376792570560328 2.897183009906850 0.462733147589003 1
-0.363200368991936 2.875026960944604 0.458978720428037 2
-0.351041939768485 2.846684048430007 0.454285686476830 3
-0.343217294312144 2.865544294077959 0.457101506847555 19
-0.333167702356098 2.870707413088113 0.457727244707716 30
-0.325132938887254 2.889519797000653 0.460543065078440 41
-0.311834278208649 2.861180898170438 0.455850031127233 29
-0.300518127590780 2.854446532764501 0.454598555406911 35
-0.292252650912307 2.867218558178309 0.456475768987394 36
-0.281741806551507 2.868270459138828 0.456475768987394 34
-0.272228729835570 2.869188977913355 0.456475768987394 26
nan nan nan 0
-0.254611473250580 2.898568751259543 0.460855934008520 1
-0.245642365687082 2.919166678610894 0.463984623309325 1
-0.235194703693650 2.904172535832495 0.461481671868681 1
-0.225971298123594 2.916792676159834 0.463358885449164 1
-0.214116315114488 2.901841141704854 0.460855934008520 2
-0.203016312636214 2.888777252311650 0.458665851497957 3
-0.193303717872732 2.887463630251940 0.458352982567876 19
-0.182973276843233 2.884177967708223 0.457727244707716 22
-0.175422985746007 2.918289766739719 0.463046016519083 41
-0.163946632537293 2.905107452361929 0.460855934008520 34
-0.153700500177673 2.903689418903697 0.460543065078440 36
-0.143661325955017 2.906181211059280 0.460855934008520 36
-0.134205265109514 2.910588190271199 0.461481671868681 34
-0.123787785402643 2.916981328371869 0.462420278658922 25
nan nan nan 0
-0.104190269333342 2.939489944991461 0.465861836889808 1
-0.094695702363654 2.947716722674729 0.467113312610129 1
-0.084744879550653 2.959876719009324 0.468990526190612 1
-0.075628913570229 2.987787886737261 0.473370691211739 1
-0.063651665269232 2.940647074104288 0.465861836889808 2
-0.053937987536852 2.915157027603991 0.461794540798762 4
nan nan nan 0
-0.033659004251407 2.966824848454770 0.469929132980854 41
-0.022633124962078 2.947175102947662 0.466800443680049 31
-0.013338349072978 2.939330237805144 0.465548967959727 31
-0.002561627924975 2.935408630527641 0.464923230099566 33
0.013779167412756 2.924008496276917 0.359027085671564 3
0.024083479603823 2.935852737037734 0.360489517792426 8
nan nan nan 0
0.045091245375790 2.969355738180433 0.364633075468201 58
0.054790843575755 2.961250873312485 0.363658120720960 36
0.064821647734301 2.947149290405727 0.361951949913288 38
0.075007567129888 2.942936169876077 0.361464472539667 36
0.085394884409745 2.946624933660648 0.361951949913288 36
0.096195452486199 2.962181269206958 0.363901859407770 36
0.106606164871477 2.963811247195026 0.364145598094581 35
0.116481463992167 2.951519776261972 0.362683165973719 33
0.127465112649745 2.966961301623563 0.364633075468201 33
0.708451344436233 15.248911662470420 1.874350501571168 33
0.762963281539992 15.272119860820251 1.877519104499702 42
0.816586182856656 15.275310364744913 1.878250320560133 45
0.868998901106735 15.256511845022445 1.876300411065651 19
0.923686415758116 15.277163210818618 1.879225275307374 40
0.977641637677361 15.283751087632366 1.880443968741426 40
1.029518601737828 15.298250587960158 1.882637616922718 42
1.083894597226737 15.308424641083892 1.884343787730390 42
1.137030143521188 15.300588611378751 1.883856310356770 42
1.191664409700899 15.312359283788457 1.885806219851252 38
1.246072831956272 15.319977660974047 1.887268651972114 35
1.300716783123038 15.329380612699461 1.888974822779786 26
1.587318682546089 17.962580720662032 2.214122230984719 50
1.649646841553235 17.952976980873075 2.213634753611099 46
1.714566834831838 17.970822686493758 2.216559617852822 50
1.779240617161565 17.984482731490559 2.218997004720925 50
1.844030632044746 17.997909997328751 2.221434391589028 50
1.907680713177062 17.999259623492559 2.222409346336269 50
1.968220985492581 18.000727885337358 2.223384301083510 50
2.009223238809435 17.800436368851148 2.199497909776102 12
2.034390583897349 17.475858349387046 2.160255981199644 6
2.069374245230076 17.251844534303352 2.133444725650512 14
2.101892724255849 16.995913454951452 2.102733651112415 14
2.129391119666787 16.738381818633655 2.071778837887507 16
2.152755211123771 16.485180992413582 2.041311502036220 13
1.984375081484776 14.793411231339565 1.832671186126608 9
2.028690549375519 14.733297834648928 1.826090241582730 15
2.070389465483875 14.657331316919963 1.817559387544369 15
2.109591351169895 14.567501852011540 1.807322362698337 15
2.153144589430327 14.510959404633505 1.801228895528080 27
2.207210208650892 14.542991873431593 1.806103669264286 54
2.255523531767418 14.519506148927789 1.804153759769803 45
2.306460538693590 14.529591626237734 1.806347407951096 54
2.355573911969101 14.511654828767002 1.805128714517044 51
2.392718860995939 14.390885151510425 1.791235609368858 22
2.416676847226227 14.227837467397002 1.771980253110844 20
2.437151292880896 14.051108532662045 1.751018726045159 19
2.455729597502340 13.870502684548070 1.729569721605853 21
2.474841572114002 13.699707806092210 1.709339410600599 21
2.492791455138723 13.528950484455605 1.689109099595344 19
2.511045838650985 13.366040598174759 1.669853743337331 23
2.530806938563276 13.216817691400067 1.652304557886989 22
2.543857215460034 13.062665100343454 1.634024156376217 24
2.557766196314627 12.894039350112095 1.614037584057773 24
2.577470950196021 12.748377447833516 1.596975875981053 24
2.595543750605740 12.610976418207015 1.580889122651573 28
2.607115923270132 12.468688142309359 1.564071153261663 28
2.623361740005926 12.331363326033323 1.547984399932183 26
2.641229354163375 12.195557973056783 1.532141385289514 28
2.654324417980594 12.052498198686376 1.515323415899604 26
2.669489254470036 11.923057167670338 1.500211617317365 26
2.686866382967503 11.807207840532783 1.486805989542799 28
2.696511233699373 11.670579938236367 1.470719236213320 28
2.708200101108398 11.537412106430834 1.455119960257461 28
2.725590029128559 11.423140545143596 1.441958071169705 30
2.737400489449194 11.297800711934396 1.427333749961087 30
2.749262536679266 11.184564786004236 1.414171860873331 30
2.762336237390419 11.070893621138138 1.401009971785576 30
2.772701005680852 10.949571318552383 1.386873127950578 33
2.788180884238997 10.851384601131068 1.375661148357305 31
2.798630613873489 10.744108402199863 1.363230475329980 33
2.815327081130162 10.655585321140288 1.353237189170758 24
2.817567843957860 10.515306347423033 1.336662958467657 13
2.831875749370968 10.423034324320460 1.326182194934815 37
2.844519772908852 10.326963906040326 1.315213954028352 31
2.852791079657175 10.217549500566971 1.302539542314216 33
2.865198041924284 10.125395216618818 1.292058778781374 37
2.874260862810488 10.023738848331927 1.280359321814479 33
2.881470927077823 9.924553034839539 1.268903603534396 37
2.892010443772868 9.832544103581284 1.258422840001553 37
2.903643378790120 9.746290891274112 1.248673292529141 37
2.912989399160756 9.654375796576121 1.238192528996298 39
2.923469573299275 9.568210569126187 1.228442981523887 37
2.930450594480345 9.472608646474756 1.217474740617423 43
2.940953183616617 9.390336123620576 1.208212670518632 37
2.950917384677243 9.308106576880313 1.198950600419841 41
2.963376146268599 9.235373614539597 1.190907223755101 45
2.973524043670069 9.157003724164923 1.182132631029931 45
2.978823402355883 9.065475113802227 1.171651867497088 48
2.988530437928723 8.989091796706957 1.163121013458728 45
3.004069134462759 8.931567157699584 1.157027546288470 46
3.014127647851477 8.859009758455592 1.148984169623730 50
3.017902879639960 8.769598231921544 1.138747144777698 45
3.027615993720542 8.699017135943057 1.130947506799769 52
3.029252564937647 8.616426255459613 1.121441698014167 46
3.039363358063743 8.549687114247536 1.114129537409858 48
3.057383112828238 8.496861044304749 1.108767286300032 48
3.063272507139407 8.420844692792283 1.100236432261672 52
3.065243132770654 8.335575978365560 1.090486884789260 52
3.074263982990278 8.270864851827609 1.083418462871761 50
3.082172544821607 8.204334685406744 1.076106302267452 54
3.093177334558005 8.147129955371025 1.070012835097195 52
3.098854788408811 8.081223068124537 1.062700674492886 50
3.100507795133051 8.001869839743629 1.053682343080905 52
3.103878823625619 7.932388645005672 1.045882705102976 50
3.112574454821808 7.873507821688392 1.039545499245908 50
3.126680276768409 7.825179035436866 1.034670725509702 52
3.127971685040312 7.749789035952065 1.026139871471342 58
3.135519852439247 7.691029955614877 1.019802665614274 58
3.142696155665719 7.632313190314128 1.013465459757207 52
3.153312093750114 7.582805237721137 1.008346947334190 60
3.160546428115978 7.525995630959575 1.002253480163933 60
3.165344458645274 7.467953483565252 0.995916274306865 61
3.169523639776516 7.405759496591840 0.989091591076177 60
3.176748326773747 7.355115951093468 0.983729339966351 58
3.184153547052402 7.302130983531203 0.978123350169714 60
3.193293089573886 7.250444061451372 0.972761099059887 64
3.200033824606971 7.197533641185519 0.967155109263250 64
3.204005950557514 7.139231809185508 0.960817903406183 60
3.210067613921454 7.086415180763191 0.955211913609546 64
3.218276049653784 7.039059780169663 0.950337139873340 64
3.225361490352307 6.989931401871786 0.945218627450324 62
3.227581202995407 6.934205038171258 0.939125160280067 60
3.229823549346477 6.876180805663147 0.932787954422999 64
3.238502195240512 6.832576362510365 0.928400658060413 66
3.239207645488190 6.772878136005633 0.921819713516535 60
3.241261518201841 6.716834463672336 0.915726246346278 48
nan nan nan 0
1.100109035772633 2.239662406128373 0.306379529320541 2
1.096462009994981 2.212685742430286 0.303210926392007 10
1.101131630156033 2.203710316241144 0.302479710331576 14
1.106136845366386 2.194535286917938 0.301748494271145 15
1.105173009368571 2.172772763164243 0.299311107403042 28
1.110938371091237 2.165369338882674 0.298823630029422 24
1.111728881206448 2.149331084341608 0.297117459221750 25
1.110961325066161 2.129597351587528 0.294923811040457 17
1.123933965522327 2.136247091515861 0.296386243161319 20
1.125801525163618 2.121789544611021 0.294923811040457 29
1.130391504582734 2.112595977328864 0.294192594980026 21
1.134931052694826 2.103396283326473 0.293461378919595 18
1.141317635305752 2.097678114200652 0.293217640232785 20
1.146723330879872 2.090200625339161 0.292730162859164 18
1.148247248269555 2.075762839505505 0.291267730738302 20
1.148717479908239 2.059606334803766 0.289561559930630 18
1.141923577307743 2.031559294838878 0.286149218315286 15
1.150965509982878 2.031014967821359 0.286636695688907 16
1.143912195283643 2.003053882136216 0.283224354073563 19
1.161792084985167 2.017972548867855 0.285905479628476 46
1.155226106867739 1.989666873872785 0.282493138013132 43
1.164169762724979 1.989048700980497 0.282980615386752 26
1.165717255259618 1.976627810218075 0.281761921952701 15
1.169566766770202 1.967427589623666 0.281030705892270 13
1.178467882294911 1.966738661563864 0.281518183265891 8
1.174037083645674 1.943921505995508 0.278837057710977 5
1.184251458243670 1.944691765794316 0.279568273771408 3
1.188955705917348 1.937162419222652 0.279080796397788 2
1.197123002310003 1.936794800086153 0.279568273771408 2
1.205975558703510 1.935974103148167 0.280055751145029 2
1.202171400627301 1.914940199413548 0.277618364276926 2
1.213093762812540 1.917442381199605 0.278593319024167 2
1.219779495191749 1.913196212024491 0.278593319024167 2
1.228596384828912 1.912266935411294 0.279080796397788 2
1.233106290783094 1.904633990620312 0.278593319024167 2
1.222392900216283 1.873716915262077 0.274693500035202 3
1.231433664546776 1.872541203683706 0.275180977408823 3
1.236866038388806 1.866576523436501 0.274937238722013 5
1.246355009947883 1.867418028245329 0.275668454782444 8
1.255081423298280 1.866350589258776 0.276155932156064 20
1.248226629782260 1.842237515693568 0.273231067914341 20
1.270318764281922 1.860822039066886 0.276643409529685 41
1.264432169966497 1.838385148578269 0.273962283974772 29
1.277625480442170 1.843750079996895 0.275424716095633 34
1.286004644230031 1.842758941509653 0.275912193469254 33
1.285578906903624 1.828515300078261 0.274449761348392 34
1.295395934639015 1.828876376957458 0.275180977408823 32
1.306384136605212 1.830807032093025 0.276155932156064 29
1.319718873867651 1.835906897904604 0.277618364276926 25
1.326119344700040 1.831289034376753 0.277618364276926 19
1.331333768111044 1.825045126830017 0.277374625590116 16
1.349451053643798 1.836383154873657 0.279812012458219 7
3.475849648104692 4.695627008355220 0.717322955282698 42
3.494592506796861 4.686648204656390 0.717810432656319 74
3.484703006272211 4.639501971837981 0.712448181546492 53
3.480515762949657 4.600397654949225 0.708304623870717 63
3.481316779357996 4.569881494794608 0.705379759628994 63
3.492413642783004 4.551402071731594 0.704404804881752 68
3.496929790103991 4.522866766458028 0.701967418013649 65
3.499279688763221 4.493404537874205 0.699286292458736 61
3.494563144284610 4.456781583511013 0.695386473469772 63
3.501486695051620 4.433651154756665 0.693680302662099 63
3.504584203335690 4.405866179662582 0.691242915793996 68
3.513736373300866 4.385859923834666 0.690024222359945 70
3.514065698976725 4.355029361020284 0.687099358118221 70
3.507963034737953 4.316547546541576 0.682955800442446 68
3.516722628352407 4.296595451303505 0.681737107008395 70
3.516547032515126 4.265912669895992 0.678812242766672 70
3.527085645585414 4.246886796192688 0.677837288019430 59
nan nan nan 0
3.532895747632395 4.195448574955763 0.673449991656845 6
nan nan nan 0
3.556942314735100 4.164644365894923 0.672475036909604 87
3.532623700702216 4.107053948662258 0.665162876305295 55
3.546938472428031 4.094697769163821 0.665162876305295 68
3.541635767715990 4.059853303713870 0.661506796003140 70
3.545304409689336 4.035535324600238 0.659556886508658 70
3.554108009742782 4.017188331935609 0.658581931761417 70
3.557544611781153 3.992900540023570 0.656632022266935 72
3.559529378531109 3.967160321678226 0.654438374085642 68
3.557385361796784 3.937036389743537 0.651513509843918 68
3.559082582988204 3.911380687777712 0.649319861662626 60
3.564667512844560 3.890151960252724 0.647857429541764 64
3.570147702869389 3.868932008578808 0.646394997420902 60
3.574179956837595 3.848969163601589 0.644932565300040 62
3.565899903740936 3.813270891853510 0.641032746311076 66
3.568301711638983 3.789238976681301 0.639082836816593 66
3.571945272137263 3.766677310108155 0.637376666008921 66
3.580958775180449 3.749879040918257 0.636645449948490 66
3.585770675783944 3.728771271417883 0.635183017827629 66
3.578050369122311 3.694841442227717 0.631526937525474 66
3.582610437126386 3.673802005392006 0.630064505404612 66
3.587067321187305 3.652775857718826 0.628602073283751 66
3.594212791591493 3.634586442614573 0.627627118536510 66
3.597072863569153 3.612171892555592 0.625920947728837 62
3.589980951312418 3.579969804974425 0.622508606113493 62
3.599634476432186 3.564623030768045 0.622021128739873 64
3.604978491598858 3.545076926024030 0.620802435305821 64
3.608809764030019 3.524150117048995 0.619340003184959 66
3.613964034108409 3.504621806501052 0.618121309750908 66
3.605550954273065 3.473337184990007 0.614708968135564 68
3.611915444492755 3.455241436230609 0.613734013388323 66
3.618197605223654 3.437143643435217 0.612759058641082 68
3.622953516910343 3.417681991647178 0.611540365207030 70
3.617476631587579 3.388729259162279 0.608615500965306 68
3.611841974844525 3.359856604281882 0.605690636723583 66
3.622089890245105 3.345881480363860 0.605446898036773 68
3.633747129158582 3.333217642907437 0.605446898036773 66
3.635087338127556 3.311155867438075 0.603740727229101 64
3.637790121886569 3.290457093527587 0.602278295108239 64
3.634485470140364 3.264473962545914 0.599840908240136 64
3.638451197914386 3.245160754775643 0.598622214806084 64
3.646784641583544 3.229808138850817 0.598134737432464 62
3.649092703808127 3.209193138327518 0.596672305311602 62
3.650362413411283 3.186658681055692 0.594966134503930 64
3.643463867295701 3.158294188643131 0.592041270262207 64
3.650359819927617 3.144241290864481 0.591553792888586 66
3.655278728516094 3.126318930115319 0.590578838141345 66
3.659146235630045 3.106477015222399 0.589360144707293 66
3.657825412203869 3.083449767614648 0.587410235212811 66
3.657910788791232 3.061743851171095 0.585704064405139 66
3.659415994081408 3.041343830836459 0.584241632284277 64
3.663885632106100 3.023497653004115 0.583266677537036 66
3.671346315416779 3.008173637962499 0.582779200163415 64
3.672063696280870 2.988464325644299 0.581316768042553 64
3.667032873624612 2.963151795944229 0.578879381174450 64
3.666515346167188 2.941637690395507 0.577173210366778 62
3.670550494929746 2.923873908771032 0.576198255619537 60
3.680734357277621 2.911043483250825 0.576198255619537 64
3.681505672127655 2.890821806905296 0.574735823498675 60
3.675918563856226 2.865748281222093 0.572298436630573 64
3.681190085572590 2.849254370225971 0.571567220570142 60
3.687965341162054 2.833968166599272 0.571079743196521 64
3.693100523545621 2.817465364575178 0.570348527136090 64
3.693418165136191 2.797365701573594 0.568886095015228 64
3.692053984468317 2.776105241043202 0.567179924207556 61
3.695358826699498 2.758450846850919 0.566204969460315 60
3.700180387642820 2.741989156273101 0.565473753399884 60
