# This PCD file was generated using the MATLAB® pcwrite function
# from Computer Vision Toolbox®.
# .PCD v.7 - Point Cloud Data file format
VERSION .7
FIELDS x y z intensity
SIZE 8 8 8 1
TYPE F F F U
COUNT 1 1 1 1
WIDTH 933
HEIGHT 1
VIEWPOINT 0 0 0 1 0 0 0
POINTS 933
DATA ascii
-1.335982439446231 -1.496841860638542 0.175531665893784 33
-1.335871748861228 -1.486242105511267 0.174834419951802 33
-1.327681158961793 -1.466798602480157 0.173091305096849 33
-1.338161906780209 -1.468045043849193 0.173788551038830 34
-1.343278187749867 -1.463365043262705 0.173788551038830 34
-1.349730536706239 -1.460130268416154 0.173962862524326 35
-1.343958845970980 -1.443743321297412 0.172568370640363 34
-1.343289630975797 -1.433463387676093 0.171871124698382 35
-1.342815451491854 -1.422969488944235 0.171173878756401 36
-1.356009234957506 -1.426939141387136 0.172219747669373 35
-1.355471872556105 -1.416439209465208 0.171522501727391 35
-1.349347683177409 -1.400221871765497 0.170128009843429 35
-1.348677037681689 -1.389783963166188 0.169430763901447 36
-1.353278311900126 -1.385303947436993 0.169430763901447 36
-1.360900136582793 -1.383412367315745 0.169779386872438 36
-1.364318678381184 -1.377238055756234 0.169605075386943 36
-1.360675165720841 -1.364003990941166 0.168559206473971 37
-1.359780038634495 -1.353623510706551 0.167861960531990 37
-1.364496782212499 -1.348868745852647 0.167861960531990 36
-1.366353292559225 -1.341306065613564 0.167513337560999 37
-1.373880334211006 -1.339309967660440 0.167861960531990 37
-1.364001380816106 -1.320886354779504 0.166118845677036 37
-1.365731623575476 -1.313355003656621 0.165770222706046 37
-1.370307767573264 -1.308579709223846 0.165770222706046 37
-1.374867214803347 -1.303788470160278 0.165770222706046 37
-1.379183173687940 -1.299222077506402 0.165770222706046 37
-1.374979871684285 -1.286233353529025 0.164724353793074 37
-1.373399572269674 -1.276241639651161 0.164027107851093 37
-1.380774591828059 -1.274142121460068 0.164375730822083 36
-1.385435281759551 -1.269072771425082 0.164375730822083 37
-1.383961263239306 -1.258866385062537 0.163678484880102 37
-1.385171595523745 -1.251598580681104 0.163329861909111 41
-1.383600217212641 -1.241433474316212 0.162632615967130 40
-1.388356768314529 -1.236111692404422 0.162632615967130 41
-1.392663144998453 -1.231257892070830 0.162632615967130 41
-1.401229606504225 -1.230577041969328 0.163155550423616 42
-1.396506863526867 -1.217821428323081 0.162109681510644 42
-1.393007854260252 -1.206661255411556 0.161238124083168 41
-1.394190403773955 -1.199192931290245 0.160889501112177 42
-1.401189002951146 -1.197151471348097 0.161238124083168 41
-1.405359304905938 -1.192253115515510 0.161238124083168 42
-1.403829876044780 -1.181715831141208 0.160540878141186 42
-1.401831422485378 -1.171697348370299 0.159843632199205 41
-1.405912869055934 -1.166796905150283 0.159843632199205 41
-1.413052380627141 -1.164416339196362 0.160192255170196 41
-1.410537240280832 -1.154922523727123 0.159495009228214 41
-1.408376209550477 -1.144964507199905 0.158797763286233 41
-1.406162921190784 -1.135035711105021 0.158100517344252 42
-1.413225776024382 -1.132612367897174 0.158449140315243 41
-1.420288808529471 -1.130153516448640 0.158797763286233 41
-1.421098398466084 -1.122718669930492 0.158449140315243 42
-1.418543847001773 -1.113080272916136 0.157751894373261 41
-1.416133638187176 -1.103224073432446 0.157054648431280 41
-1.419975981289673 -1.098274123325573 0.157054648431280 42
-1.422220777125039 -1.092097349595551 0.156880336945785 42
-1.430777657773722 -1.090749973260327 0.157403271402271 41
-1.423455621878496 -1.077332323207191 0.156183091003803 43
-1.424021810179428 -1.069963318392849 0.155834468032813 43
-1.438927238449744 -1.073324852900333 0.157054648431280 50
-1.437861528619943 -1.064738487627283 0.156531713974794 46
-1.446385332990324 -1.063253171129340 0.157054648431280 48
-1.437212602442939 -1.048802102897805 0.155660156547317 48
-1.437637828058305 -1.041441214315032 0.155311533576327 48
-1.441264377725304 -1.036416576979672 0.155311533576327 50
-1.448116628366264 -1.033694416311120 0.155660156547317 50
-1.451356923645525 -1.029139930160065 0.155660156547317 48
-1.441906269270992 -1.014893302442667 0.154265664663355 51
-1.443806857750850 -1.008712849322062 0.154091353177860 47
-1.448956365351334 -1.004802247217743 0.154265664663355 50
-1.452454952199580 -0.999738324031289 0.154265664663355 48
-1.455935841342600 -0.994662219348855 0.154265664663355 54
-1.452802836738083 -0.985101344196219 0.153568418721374 50
-1.449620905259612 -0.975574515640583 0.152871172779392 54
-1.456331073049058 -0.972721697024380 0.153219795750383 54
-1.459717632950127 -0.967632226749755 0.153219795750383 51
-1.462918391024147 -0.962786308270704 0.153219795750383 55
-1.456261559303530 -0.951136881256180 0.152173926837411 63
-1.459572774560393 -0.946047785131891 0.152173926837411 61
-1.459514850961197 -0.938791498113178 0.151825303866421 63
-1.462782952968753 -0.933691121094060 0.151825303866421 63
-1.472765875429619 -0.932843796125574 0.152522549808402 63
-1.465891902424904 -0.921335848401656 0.151476680895430 65
-1.465717908483147 -0.914104656404165 0.151128057924439 65
-1.465511334028401 -0.906885930991002 0.150779434953449 61
-1.468668028290302 -0.901764816719413 0.150779434953449 63
-1.475052972632245 -0.898963312953741 0.151128057924439 65
-1.471362198400463 -0.889685254415547 0.150430811982458 63
-1.471041761417375 -0.882493893864197 0.150082189011467 63
-1.474113277887103 -0.877353623403054 0.150082189011467 61
-1.477166832751742 -0.872202662664885 0.150082189011467 60
-1.480202388804690 -0.867041074412520 0.150082189011467 63
-1.479774566645043 -0.859866903137501 0.149733566040477 65
-1.472410117659027 -0.848726348205503 0.148687697127505 61
-1.482282225190463 -0.847537340574759 0.149384943069486 65
-1.485231652037228 -0.842358046540123 0.149384943069486 61
-1.488016845674540 -0.837428209324786 0.149384943069486 67
-1.487451531343962 -0.830286768047042 0.149036320098495 61
-1.483511665746197 -0.820970557738419 0.148339074156514 60
-1.489861577338608 -0.817704377567488 0.148687697127505 60
-1.496064557222291 -0.814664971577131 0.149036320098495 63
-1.495392957269265 -0.807544346814713 0.148687697127505 61
-1.487664348343107 -0.796676017732648 0.147641828214533 56
-1.486916873373769 -0.789609348580334 0.147293205243542 61
-1.496440530220928 -0.788649837297905 0.147990451185524 57
-1.499184315063801 -0.783421480318599 0.147990451185524 57
-1.501909832818910 -0.778183577595787 0.147990451185524 61
-1.501072604928559 -0.771115377420564 0.147641828214533 60
-1.496786611331957 -0.761992867340726 0.146944582272552 60
-1.502994727847717 -0.758558870326523 0.147293205243542 60
-1.501938617544107 -0.751786990357271 0.146944582272552 61
-1.508123215946515 -0.748310815912897 0.147293205243542 61
-1.503703802387543 -0.739262131724398 0.146595959301561 60
-1.502693042727099 -0.732263160315870 0.146247336330570 56
-1.508828139556577 -0.728746368772218 0.146595959301561 56
-1.511362746802709 -0.723475135919283 0.146595959301561 61
-1.521079314021720 -0.721610997798883 0.147293205243542 56
-1.516376684201633 -0.712906288600484 0.146595959301561 57
-1.511385986565380 -0.704770859963586 0.145898713359580 57
-1.517454180529126 -0.701162268387918 0.146247336330570 60
-1.523515553508006 -0.697519879957303 0.146595959301561 60
-1.522312197547876 -0.690551438933531 0.146247336330570 60
-1.521078800563602 -0.683599918019313 0.145898713359580 60
-1.523455742652303 -0.678286197426824 0.145898713359580 56
-1.525814121913551 -0.672964212131073 0.145898713359580 56
-1.528153909611243 -0.667634026978771 0.145898713359580 57
-1.526702688611990 -0.660979630376607 0.145550090388589 57
-1.529000636898966 -0.655646416561876 0.145550090388589 57
-1.525778350167698 -0.647968787984255 0.145027155932103 52
-1.528030887770650 -0.642638879979327 0.145027155932103 52
-1.535894196265175 -0.639331048101705 0.145550090388589 56
-1.541800632327292 -0.635484362982428 0.145898713359580 56
-1.532832117165518 -0.625849306176498 0.144852844446608 53
-1.535007400394032 -0.620494910689269 0.144852844446608 57
-1.537163980041791 -0.615132954667370 0.144852844446608 53
-1.543006527376274 -0.611231044969077 0.145201467417598 56
-1.545130721364627 -0.605841223221896 0.145201467417598 56
-1.539806383316282 -0.597560734883205 0.144504221475617 57
-1.541779499744208 -0.592451267315910 0.144504221475617 56
-1.540113568183762 -0.585649520204750 0.144155598504627 53
-1.545877984176351 -0.581673265686663 0.144504221475617 53
-1.551633361087031 -0.577663886890545 0.144852844446608 56
-1.548131012716717 -0.569908101843583 0.144329909990122 52
-1.548238816843486 -0.563818879995035 0.144155598504627 53
-1.544476899376594 -0.556654978519456 0.143632664048141 52
-1.557670849585169 -0.555274388435878 0.144678532961113 52
-1.561478664748787 -0.550496169823255 0.144852844446608 53
-1.552102722123415 -0.541106915281031 0.143806975533636 53
-1.550121560752036 -0.534657692333782 0.143458352562645 56
-1.555749935506594 -0.530529633441053 0.143806975533636 53
-1.561276440355767 -0.526641282287856 0.144155598504627 56
-1.570665613627254 -0.523709063913018 0.144852844446608 57
-1.561220224539191 -0.514209066701148 0.143806975533636 53
-1.563005637657720 -0.508756258377283 0.143806975533636 53
-1.564772006045808 -0.503297251018963 0.143806975533636 56
-1.562721685615528 -0.496625245418490 0.143458352562645 56
-1.564445710595997 -0.491167303144050 0.143458352562645 57
-1.566150673299191 -0.485703376151024 0.143458352562645 57
-1.564026500574127 -0.479066499348529 0.143109729591655 57
-1.565689226143398 -0.473604109393798 0.143109729591655 63
-1.571150981163655 -0.469276352982435 0.143458352562645 65
-1.578512585898839 -0.465479758042468 0.143981287019131 91
-1.574308821921083 -0.458571078788735 0.143458352562645 70
-1.556751705023981 -0.447567782918274 0.141715237707692 100
-1.579388594923446 -0.448113070601804 0.143632664048141 21
nan nan nan 0
nan nan nan 0
-1.591683833260178 -0.433644384283286 0.144329909990122 1
-1.585491277959533 -0.426017681948391 0.143632664048141 1
-1.594672429371358 -0.422521857523485 0.144329909990122 1
-1.623125424258640 -0.424002765012570 0.146770270787056 1
-3.102553081961483 -0.798909432526880 0.280292868676469 4
-3.101323131446545 -0.787635736651781 0.279944245705478 4
-5.527766683014539 -1.383351904336621 0.498530848516605 8
-5.520955032232868 -1.361186330790665 0.497484979603633 8
-5.537289514967587 -1.344727414945995 0.498530848516605 8
-5.559157319690543 -1.330531560360184 0.500099651886063 11
-5.561828602494023 -1.310661379039133 0.499925340400567 11
-5.581670535981776 -1.295814976573092 0.501319832284530 5
-3.131046435150758 -0.715380162163058 0.280990114618450 3
-3.121983703871442 -0.701279524909679 0.279944245705478 4
-5.583477073068207 -1.233738114874550 0.500273963371558 8
-5.587749606311862 -1.214240626372779 0.500273963371558 11
-5.580263558308574 -1.192230652817056 0.499228094458586 8
-5.599784741631608 -1.176997822187245 0.500622586342549 5
-5.580444661813903 -1.152607639012524 0.498530848516605 8
-5.600054809770111 -1.136290799749791 0.499925340400567 8
-5.603987087408069 -1.116736037830336 0.499925340400567 5
-3.155882722009153 -0.617443729950898 0.281338737589441 3
-5.623386593911362 -1.079840295070018 0.500971209313539 5
-5.615189296142146 -1.058971115052740 0.499925340400567 8
-5.591423439693926 -1.034290391094359 0.497484979603633 5
-3.030884110308616 -0.549165771580680 0.269485556575759 3
-3.001395449448165 -0.533008718581979 0.266696572807834 6
-2.885288263778321 -0.503044512812976 0.256237883678115 27
nan nan nan 0
-2.884799591349146 -0.482232313316480 0.255889260707124 46
-2.888431578100475 -0.472481180183882 0.256063572192620 60
-2.872437103098847 -0.459061544221194 0.254494768823162 55
-2.875990535295761 -0.449339627034991 0.254669080308657 52
-2.871556234101509 -0.438896947974401 0.254146145852171 55
-2.880953000201598 -0.430047272155357 0.254843391794152 55
-2.878566609513694 -0.418911311896063 0.254494768823162 55
-2.874093514132372 -0.408020562436088 0.253971834366676 53
-2.883255085559471 -0.400084704944077 0.254669080308657 53
-2.884634076024335 -0.390017829046283 0.254669080308657 53
-2.899871914411200 -0.381260496595024 0.255889260707124 56
-2.897232526641971 -0.370630097311580 0.255540637736134 56
-2.882628757323328 -0.359050392007933 0.254146145852171 56
-2.895732270327736 -0.350422108581468 0.255192014765143 57
-2.898976004698908 -0.340038473701446 0.255366326250638 59
-2.902124920288940 -0.330142286754248 0.255540637736134 55
-2.899187131606970 -0.320585420012605 0.255192014765143 56
-2.900288520716901 -0.310463415232575 0.255192014765143 57
-2.901354570726483 -0.300337627553809 0.255192014765143 55
-2.916262793837847 -0.291595787775566 0.256412195163610 61
-2.915279702744951 -0.281223046231051 0.256237883678115 57
-2.910292075949955 -0.270491954422826 0.255714949221629 63
-2.911218538578211 -0.260331491339646 0.255714949221629 61
-2.912109528927299 -0.250167856199400 0.255714949221629 61
-2.920907681092769 -0.240655572768724 0.256412195163610 61
-2.925702371061631 -0.230771571549016 0.256760818134601 63
-2.922516579828627 -0.220258091334150 0.256412195163610 63
-2.919293087982503 -0.209769667620320 0.256063572192620 66
-2.923948114311555 -0.200360203097534 0.256412195163610 63
-2.932582454223090 -0.190669568828512 0.257109441105592 61
-2.937207410146377 -0.180676437376743 0.257458064076582 61
-2.933842103148201 -0.170191800887449 0.257109441105592 61
-2.930383501325697 -0.160755769504551 0.256760818134601 67
-2.942865392780035 -0.151138982698584 0.257806687047573 66
-2.943375037340838 -0.140865544660060 0.257806687047573 67
-2.947829681656671 -0.130766983039099 0.258155310018564 66
-2.948268184423885 -0.120476340511773 0.258155310018564 67
-2.944688763793102 -0.110035432948688 0.257806687047573 63
-2.945054919081200 -0.099755880574449 0.257806687047573 66
-2.957334014103921 -0.089838094907933 0.258852555960545 66
-2.961598988300647 -0.080138513444474 0.259201178931535 63
-2.957877008103305 -0.069706235062128 0.258852555960545 63
-2.954118331700208 -0.059300918557065 0.258503932989554 67
-2.966260026223966 -0.049186961261693 0.259549801902526 61
-2.958437970076011 -0.039244508981811 0.258852555960545 61
-2.974495289019758 -0.029073178145574 0.260247047844507 63
-2.962624551298260 -0.018614964015161 0.259201178931535 63
-2.984587678230367 -0.008334562752825 0.261118605271984 75
-2.992568462852739 0.001566905326232 0.261815851213965 54
-2.984575268208231 0.011980917351496 0.261118605271984 41
-2.980530597374208 0.022369051094937 0.260769982300993 17
nan nan nan 0
-14.885645925605195 0.210454882132408 1.302455419621004 3
nan nan nan 0
nan nan nan 0
-3.342217111484994 0.082265704651162 0.292494672661141 1
-3.274211103753722 0.091456997251394 0.286568082154300 4
-3.289803161820632 0.103386229393635 0.287962574038263 1
nan nan nan 0
nan nan nan 0
nan nan nan 0
nan nan nan 0
nan nan nan 0
nan nan nan 0
-3.290305792832471 0.183380596934830 0.288311197009253 4
-3.309534659831031 0.196042932915441 0.290054311864206 3
nan nan nan 0
nan nan nan 0
nan nan nan 0
nan nan nan 0
-2.765306228038368 0.211807754904088 0.242641587809480 1
-2.700997159466707 0.216368168859327 0.237063620273630 8
-2.696254518450789 0.225463038624330 0.236714997302640 8
-2.707360288551154 0.235911081707950 0.237760866215611 10
-2.718425825599229 0.246439392087342 0.238806735128583 10
-2.719532642436732 0.256113775655125 0.238981046614079 10
-2.708707328878843 0.264636500954310 0.238109489186602 11
-2.709749332666386 0.274290693337075 0.238283800672097 10
-2.722695938394548 0.284725604927241 0.239503981070565 10
-2.715742928262576 0.293585433819615 0.238981046614079 10
-2.722621933332400 0.303947568200099 0.239678292556060 10
-2.723523676176005 0.313677403781698 0.239852604041555 11
-2.710541161873632 0.321773139099536 0.238806735128583 10
-2.735111099265963 0.334375817418770 0.241072784440022 11
-2.731950437323929 0.343672422131554 0.240898472954527 11
-2.738637869515417 0.354228920709389 0.241595718896508 11
-2.733434645047842 0.363261448490866 0.241247095925518 11
-2.728201779336793 0.372261973550531 0.240898472954527 11
-2.732805154961781 0.382611668742604 0.241421407411013 11
-2.743285950948823 0.393847446657767 0.242467276323985 11
-2.739923285933366 0.403130879975577 0.242292964838490 11
-2.734559117094133 0.412098738842598 0.241944341867499 9
-2.735073059253303 0.421945397232050 0.242118653352994 11
-2.741455622759026 0.432732605072107 0.242815899294976 11
-2.747796107583271 0.443569497651752 0.243513145236957 11
-2.758025856740007 0.455104671643309 0.244559014149929 11
-2.744632471607068 0.462741768048749 0.243513145236957 11
-2.741036986615868 0.471981408523982 0.243338833751462 11
-2.747221970338451 0.482926327194508 0.244036079693443 11
-2.761208188745209 0.495327339182474 0.245430571577405 11
-2.769438301015187 0.505789242785748 0.246302129004882 11
-2.765697185658194 0.515088511506019 0.246127817519387 9
-2.759784416810738 0.524959579639956 0.245779194548396 4
-3.332993971362771 0.646057492797671 0.297026771284019 1
nan nan nan 0
nan nan nan 0
-3.427667316474035 0.701105617264751 0.306090968529775 1
nan nan nan 0
nan nan nan 0
nan nan nan 0
-3.460360851603458 0.758277496723385 0.309925821210672 1
nan nan nan 0
nan nan nan 0
-3.459997147607056 0.796259410433377 0.310623067152654 3
-3.488379945203866 0.814981131215458 0.313412050920579 1
nan nan nan 0
nan nan nan 0
nan nan nan 0
nan nan nan 0
nan nan nan 0
-3.466841491028654 0.886264839741864 0.313063427949588 3
-3.498441138643323 0.907364593264434 0.316201034688504 1
nan nan nan 0
nan nan nan 0
-6.146657828043453 1.663100022108125 0.557099507643031 3
nan nan nan 0
-3.605099032625804 1.001815541559378 0.327356969760204 1
-3.467335881344980 0.976583384777065 0.315155165775532 4
-6.138470313770438 1.752064684722404 0.558493999526994 3
nan nan nan 0
nan nan nan 0
nan nan nan 0
-6.251444779007391 1.876712667939428 0.571044426482656 3
-3.484614254828614 1.059371113504762 0.318641395485438 3
-3.499749132655355 1.078000822825308 0.320384510340391 4
nan nan nan 0
nan nan nan 0
nan nan nan 0
nan nan nan 0
-3.530038474015871 1.153794422411339 0.324916608963270 1
-3.510856471647045 1.161104764977986 0.323522117079307 4
-3.518118650285575 1.177146033838505 0.324567985992279 3
nan nan nan 0
nan nan nan 0
-6.800334767374255 2.354827045468678 0.629613085609083 3
-3.546470249167806 1.241956218324329 0.328751461644167 1
-3.519576099691216 1.246347264335815 0.326659723818223 4
-3.526458748968886 1.262655034565458 0.327705592731195 4
-6.606096496525226 2.390069561660236 0.614622297856485 3
-6.504155304988196 2.378895712491903 0.605906723581720 3
nan nan nan 0
-3.553274764311353 1.328514996375994 0.331889068383082 1
-3.548615733793279 1.340910146192727 0.331889068383082 4
-3.555081259043389 1.357553523484855 0.332934937296054 4
-6.212550363059442 2.395978018905533 0.582548984525347 7
-6.181871973891962 2.408968302648097 0.580457246699403 6
-6.147471101994904 2.420313932065257 0.578016885902469 3
-3.569349644670782 1.419695164193504 0.336072544034970 3
-3.583110844402985 1.438948663896838 0.337815658889923 1
-3.651916841137306 1.481404920637888 0.344788118309736 1
-6.190949238804733 2.536569136731226 0.585337968293272 3
-6.141555378767762 2.541404268522006 0.581503115612375 10
-6.162059980033160 2.575118549712903 0.584292099380300 3
-3.583150830015775 1.512108451938589 0.340256019686857 4
-3.592514079500471 1.530855158574541 0.341650511570820 4
-3.587148510949525 1.543386046436860 0.341650511570820 4
-6.165708253031199 2.678367492851229 0.588126952061197 10
-6.185515616146658 2.712676707458708 0.590915935829122 10
-6.297222436939294 2.785286902326505 0.602420493871813 3
-3.598552968036466 1.606696514500600 0.344788118309736 4
-3.614719933087319 1.629071567104558 0.346879856135680 4
-6.233252335401080 2.835403011531647 0.599108575647402 14
-6.225127639610218 2.857975138406662 0.599282887132898 7
nan nan nan 0
-3.642157581325171 1.703011640814872 0.351760577729548 1
-3.632587015101226 1.714014356932503 0.351411954758558 4
-3.634079362227725 1.729475729755283 0.352109200700539 3
nan nan nan 0
nan nan nan 0
nan nan nan 0
-3.652463948469544 1.801195889931991 0.356292676352427 3
-3.646154349426975 1.813934394881021 0.356292676352427 3
nan nan nan 0
nan nan nan 0
nan nan nan 0
-3.688112093925015 1.898688175393797 0.362916512801249 1
-3.674389032465041 1.907877994216756 0.362219266859267 3
nan nan nan 0
nan nan nan 0
nan nan nan 0
nan nan nan 0
-3.696594438784349 2.002077608265953 0.367797234395117 1
nan nan nan 0
nan nan nan 0
nan nan nan 0
nan nan nan 0
nan nan nan 0
nan nan nan 0
nan nan nan 0
nan nan nan 0
nan nan nan 0
nan nan nan 0
nan nan nan 0
nan nan nan 0
nan nan nan 0
nan nan nan 0
nan nan nan 0
-3.865286427717947 2.378870123244193 0.397081563958331 1
nan nan nan 0
nan nan nan 0
nan nan nan 0
-3.832119952920407 2.431937272627258 0.397081563958331 1
-3.822753757728828 2.446633593191781 0.397081563958331 1
nan nan nan 0
nan nan nan 0
nan nan nan 0
-3.811941134025830 2.514466747117909 0.399521924755265 3
nan nan nan 0
nan nan nan 0
-3.845310476492343 2.593694666297491 0.405797138233096 2
-3.823503836220618 2.597475103640463 0.404402646349134 4
nan nan nan 0
nan nan nan 0
-3.834898801999986 2.665324100241326 0.408586122001021 2
-3.832100000529223 2.683265307543994 0.409283367943003 4
nan nan nan 0
nan nan nan 0
-3.884791975744501 2.781237887972902 0.417998942217769 2
-3.875547698642374 2.794105030211397 0.417998942217769 4
-3.939926578364886 2.861473718608407 0.426017270550553 6
-3.914334028285033 2.862761700843900 0.424274155695600 6
-3.878652086004019 2.857499649270629 0.421485171927675 6
-3.845756521452969 2.855069565521366 0.419044811130740 14
-3.838958193111468 2.870862786511172 0.419393434101731 34
-3.811909236052692 2.870394007630291 0.417476007761283 27
-3.801866467692171 2.883682566577251 0.417476007761283 31
-3.780190745180959 2.889128764218501 0.416255827362815 34
-3.754295157251068 2.890152778558698 0.414512712507862 30
-3.733667364436403 2.894042379552367 0.413292532109395 32
-3.710978905720178 2.897248965097462 0.411898040225432 28
-3.697710685100237 2.907721920413482 0.411549417254442 34
-3.670357914993749 2.907004370114118 0.409631990913993 30
-3.644612945998704 2.907373924806704 0.407888876059040 30
-3.629782571693867 2.916334595318193 0.407365941602554 32
-3.613895565191802 2.923343191597038 0.406668695660573 30
-3.600579875431955 2.933423351506553 0.406320072689582 30
-3.608801358602664 2.961139737867668 0.408411810515526 50
-3.598443065933155 2.973718765160724 0.408411810515526 46
-3.609480352459347 3.004105204305901 0.410852171312461 58
-3.586756644743804 3.006447268811347 0.409457679428498 22
-3.599077117320573 3.038227160785523 0.412072351710928 24
-3.594521625642908 3.055933824878889 0.412769597652909 24
-3.605020725917250 3.086603676553106 0.415209958449844 28
-3.615349250609415 3.117383840169671 0.417650319246778 38
-3.620993479596438 3.144354485038690 0.419567745587226 12
-3.647490334673485 3.189764474246910 0.423925532724609 36
-3.642874370671605 3.207108637907582 0.424622778666591 34
-3.652528872284536 3.238309730714376 0.427063139463525 38
-3.656064861667466 3.264309256724584 0.428806254318478 36
-3.669834613964029 3.299697707702020 0.431769549571899 38
-3.676017023911440 3.328535296975348 0.433861287397842 36
-3.674681468981210 3.350743830540661 0.435081467796310 15
-3.675291944162301 3.373689651078900 0.436475959680272 18
-3.683975967807493 3.405432356138586 0.438916320477207 24
-3.693941245299338 3.438634097822718 0.441530992759636 31
-3.703719352923826 3.471946656128498 0.444145665042066 28
nan nan nan 0
-4.093062273978888 3.889605437114953 0.493998749893726 5
-4.097417906179264 3.919684264085004 0.496090487719670 5
-4.109538798859615 3.958844044714406 0.499228094458586 5
-4.135736526685974 4.012008684364184 0.504108816052455 5
-4.127407645861664 4.031989702945229 0.504806061994436 5
-4.130352324593620 4.063139216820085 0.506897799820380 5
-6.794185681017385 6.730451856351168 0.836695130377518 3
-6.877425054106688 6.855852853871567 0.849594180304172 3
-4.179002592675843 4.195079696283844 0.518053734892080 3
nan nan nan 0
nan nan nan 0
nan nan nan 0
nan nan nan 0
nan nan nan 0
nan nan nan 0
nan nan nan 0
nan nan nan 0
nan nan nan 0
nan nan nan 0
nan nan nan 0
nan nan nan 0
nan nan nan 0
nan nan nan 0
-8.349698358565231 9.302624047836751 1.093630259997615 3
-8.232333190358728 9.236522049927357 1.082474324925914 2
-8.201658515305157 9.263770665026128 1.082474324925914 2
nan nan nan 0
nan nan nan 0
nan nan nan 0
nan nan nan 0
nan nan nan 0
nan nan nan 0
nan nan nan 0
nan nan nan 0
-7.687637432941475 9.253230015084130 1.052492749420720 5
-7.640772225611853 9.255824856676146 1.050052388623786 2
-7.636203200076514 9.316339751734928 1.053887241304683 5
-7.653941820244630 9.404750677593162 1.060859700724495 2
-7.678669023516911 9.502696342948170 1.068878029057280 2
nan nan nan 0
nan nan nan 0
nan nan nan 0
nan nan nan 0
nan nan nan 0
nan nan nan 0
nan nan nan 0
nan nan nan 0
nan nan nan 0
nan nan nan 0
-4.708777579128182 6.305817920226185 0.688530367706500 4
-4.663007163045028 6.290204982859246 0.685044137996593 8
-4.629212625602562 6.290396663067872 0.683301023141640 8
-4.602525588962416 6.300082085679434 0.682603777199659 20
-4.581675848383322 6.317722414126188 0.682778088685154 33
-4.545626334497817 6.314273300932888 0.680686350859210 33
-4.510815297856980 6.312270755894989 0.678768924518762 33
-4.489906615552392 6.329603041731996 0.678943236004257 33
-4.463196597939747 6.338720888720650 0.678245990062276 33
-4.434194964027184 6.344463335610928 0.677200121149304 32
-4.398393773404885 6.340258424136959 0.675108383323360 32
-4.370585673600727 6.347368082309543 0.674236825895884 28
-4.348402597117689 6.362585603037965 0.674236825895884 28
-4.346298645733935 6.407404775734404 0.677374432634799 32
-4.359529302668043 6.473011226685008 0.682778088685154 24
-4.372338160562813 6.541194764685582 0.688356056221004 24
-4.389129346847106 6.616187042081116 0.694631269698836 24
-4.404354171270099 6.689711410634444 0.700732171691172 20
-4.427837072704170 6.776765347343593 0.708227565567470 24
-4.654550969177834 7.178346378363510 0.748493518716888 20
-4.669356104173022 7.256543155884970 0.754943043680215 32
-4.635419441195441 7.259364103299484 0.753548551796253 32
-4.604719286321385 7.267085635681464 0.752676994368776 28
-4.534782539666070 7.212273974442405 0.745355911977973 4
nan nan nan 0
nan nan nan 0
-1.111939576397479 1.809554303248421 0.185816043538007 1
-1.118062240654073 1.833838458459869 0.187907781363951 1
nan nan nan 0
nan nan nan 0
nan nan nan 0
nan nan nan 0
nan nan nan 0
nan nan nan 0
nan nan nan 0
nan nan nan 0
nan nan nan 0
nan nan nan 0
-5.427932115110186 9.716122557686051 0.973703957976837 3
-5.382395944609109 9.714097363579844 0.971612220150893 3
-5.324466221188869 9.689173459136464 0.967254433013510 25
-5.292519126190323 9.711199185731857 0.967603055984501 28
-5.251208152235767 9.720014410792455 0.966557187071529 28
-5.210660732961749 9.725991732955464 0.965337006673062 28
-5.178379532127802 9.743217429822007 0.965337006673062 28
-5.131332981429481 9.736557701932163 0.962896645876127 25
-5.093478782104681 9.742926304714862 0.961850776963155 25
-5.092446889562768 9.824325968920981 0.968125990440987 15
-5.126426347003291 9.974946854027520 0.981199351853136 12
-5.158510966172916 10.124147814974485 0.994098401779789 12
-5.163576082626056 10.226577859033020 1.002291041598069 3
nan nan nan 0
nan nan nan 0
nan nan nan 0
nan nan nan 0
nan nan nan 0
nan nan nan 0
nan nan nan 0
-6.191025826798766 13.156599584757373 1.272125221144819 3
-6.138326844844133 13.163684399117827 1.270730729260856 3
-6.066215807444966 13.122478434659191 1.264804138754015 28
-6.015394594467744 13.132705087233804 1.263758269841043 28
-5.960635900782623 13.140148908988943 1.262363777957081 31
-5.916365359775273 13.164509953742815 1.262712400928071 28
-5.869434959665417 13.176776958074493 1.262015154986090 28
-5.829838366105607 13.211767356764909 1.263409646870053 17
-5.870613085466023 13.424527275869400 1.281886664332556 10
-5.901324298929969 13.624106083061758 1.298969189911097 3
nan nan nan 0
nan nan nan 0
-7.008597892245551 16.656517590011404 1.581005173442519 4
-6.922826010609131 16.614672117740493 1.574729959964688 4
-6.832112813873570 16.559539073095067 1.567234566088389 19
-6.771253812398695 16.575908983602215 1.566537320146408 28
-6.709616804489748 16.590208831005064 1.565665762718931 23
-6.641297520834866 16.587633634202874 1.563225401921997 23
-6.584785594737816 16.605861580934278 1.562876778951006 19
-6.566089386320964 16.728896424665678 1.572289599167753 38
-6.509097576421550 16.755428784811549 1.572638222138744 38
-6.446995647933264 16.768749287505969 1.571766664711267 38
-6.377702030186187 16.771780888830666 1.569849238370819 38
-6.314207138617931 16.780887792042208 1.568629057972352 38
-6.255743115951553 16.794265923226533 1.567931812030371 38
-6.197082075711164 16.816000225372342 1.567931812030371 38
-6.138553158948294 16.828971000320358 1.567234566088389 38
-6.074362038189934 16.835302987799555 1.565840074204427 38
-6.010608769333743 16.851823772933884 1.565317139747941 38
-5.950422751730073 16.868944205764333 1.564968516776950 38
-5.895107143283709 16.890464875080973 1.565142828262446 38
-5.833512608954668 16.903406185178323 1.564445582320464 38
-5.766752426405203 16.901038220095916 1.562353844494520 38
-5.705811232526225 16.915401336865386 1.561830910038035 38
-5.650316913151729 16.936119463114469 1.562005221523530 38
-5.591788344362493 16.957631739676959 1.562179533009025 38
-5.529597958046653 16.978012767371037 1.562179533009025 38
-5.462364897648126 16.972555601568079 1.559913483697586 38
-5.404897636594980 16.997215528516087 1.560436418154072 38
-5.343144822233541 17.008375381655533 1.559739172212091 38
-5.284941159656928 17.020292055745792 1.559216237755605 38
-5.224912874657341 17.036731427253642 1.559041926270109 38
-5.162524111294823 17.045331733409014 1.558170368842633 38
-5.098997268728857 17.049886479510633 1.556950188444165 14
-0.733895958706398 2.483957915701408 0.226604931143911 2
-0.723547269755701 2.480766470106144 0.226081996687425 5
-0.705513272517787 2.450728272855162 0.223118701434005 25
-0.698043327325802 2.457009130650352 0.223467324404996 30
-0.690000314479466 2.461349220390000 0.223641635890491 37
-0.681404398621907 2.463742775582496 0.223641635890491 35
-0.671226991804752 2.460339889231394 0.223118701434005 40
-0.665223130393722 2.472287716008059 0.223990258861481 41
-0.653953268596519 2.462926089325950 0.222944389948510 41
-0.644342917044570 2.461338930293466 0.222595766977519 40
-0.637738692918227 2.471289863600845 0.223293012919500 41
-0.630090610649932 2.477362759279920 0.223641635890491 42
-0.621819610739494 2.477397571368604 0.223467324404996 43
-0.610776639849869 2.469882390061801 0.222595766977519 42
-0.600777569694579 2.468232671109598 0.222247144006528 41
-0.593087045245814 2.474189742377347 0.222595766977519 41
-0.584879075397933 2.476142885958997 0.222595766977519 15
-0.582098267012074 2.503397445695903 0.224861816288958 3
-0.567133762089616 2.478223555701723 0.222421455492024 3
-0.558917372364391 2.482131844885154 0.222595766977519 11
-0.548093938325599 2.476382458573994 0.221898521035538 28
-0.541988970891908 2.489961396171037 0.222944389948510 36
-0.534163864723208 2.491651814482605 0.222944389948510 41
-0.523408927319513 2.483753359707506 0.222072832521033 37
-0.513494619062259 2.481752939172937 0.221724209550042 38
-0.504828556267957 2.483530250203492 0.221724209550042 27
nan nan nan 0
-0.494049397334535 2.518190822598548 0.224513193317967 2
-0.481488743503030 2.500335593879641 0.222770078463014 1
-0.476457212086720 2.521578543507364 0.224513193317967 1
-0.468662933276168 2.531144269499729 0.225210439259949 1
-0.454842114719713 2.505319968151550 0.222770078463014 1
-0.446531673440619 2.506814503858613 0.222770078463014 2
-0.435038139690919 2.492656146900540 0.221375586579052 3
-0.426433762831200 2.492121233370201 0.221201275093556 7
nan nan nan 0
-0.412248432931291 2.514698993624522 0.222944389948510 48
-0.401890704710931 2.506286399939767 0.222072832521033 40
-0.392032697694185 2.497763871913357 0.221201275093556 46
-0.383311486302445 2.499117104172111 0.221201275093556 45
-0.374444027407516 2.502475678204609 0.221375586579052 42
-0.365994433753714 2.505738956301891 0.221549898064547 31
-0.357401672934442 2.504966445653602 0.221375586579052 16
-0.348380998938479 2.504225364354337 0.221201275093556 8
-0.338566931298397 2.497528859925168 0.220504029151575 16
nan nan nan 0
-0.322392041594573 2.509712378178675 0.221375586579052 40
-0.314370403603474 2.516753523033281 0.221898521035538 45
-0.304623179955653 2.509924045490359 0.221201275093556 46
-0.295860054165502 2.510972087508376 0.221201275093556 46
-0.287998266907774 2.519907546839836 0.221898521035538 46
-0.278542419260440 2.514956653769469 0.221375586579052 45
-0.271918702949487 2.527705068856547 0.222421455492024 42
-0.262062777590024 2.518730383202893 0.221549898064547 41
-0.251992487822350 2.515753124211135 0.221201275093556 11
-0.243400989717109 2.518600565367902 0.221375586579052 3
-0.237712462213695 2.543157710452023 0.223467324404996 2
-0.230261716564511 2.559847008213576 0.224861816288958 2
-0.218823183850367 2.536853544521475 0.222770078463014 2
-0.208652234504965 2.521717092519077 0.221375586579052 2
-0.200919602815581 2.530339694637958 0.222072832521033 3
-0.192387392545734 2.534998971859015 0.222421455492024 5
-0.183393584601622 2.533667894596273 0.222247144006528 11
-0.173726912043717 2.522366538774399 0.221201275093556 20
-0.164531266793165 2.516993152994482 0.220678340637070 7
-0.156236401856231 2.525506491063089 0.221375586579052 3
-0.148116258639024 2.537970502205175 0.222421455492024 2
-0.139256185938771 2.538472062248193 0.222421455492024 2
-0.130598796408921 2.542922225809929 0.222770078463014 2
-0.121340570586153 2.535402161982574 0.222072832521033 2
-0.112577631644358 2.527828935375202 0.221375586579052 3
-0.103916566960745 2.532187931811243 0.221724209550042 5
-0.094927456420309 2.528553267717402 0.221375586579052 8
nan nan nan 0
-0.077576877615439 2.539111662578151 0.222247144006528 62
-0.068174323811206 2.519450383456838 0.220504029151575 41
-0.059473265874559 2.523656679641002 0.220852652122566 46
-0.050703684915953 2.525840893186691 0.221026963608061 47
-0.041787445262620 2.520026147194975 0.220504029151575 47
-0.032964578270681 2.518164441034902 0.220329717666080 47
-0.024116967354841 2.512287274564885 0.219806783209594 45
-0.015383813511227 2.518333209445295 0.220329717666080 43
-0.006577448234361 2.512394418722860 0.219806783209594 20
nan nan nan 0
0.012268835681871 2.510524671892412 0.131572593994761 36
0.021367802716698 2.498479725463776 0.130944562519845 34
0.029747756135249 2.506383603423416 0.131363250169789 31
0.038465811882988 2.504267471128045 0.131258578257303 22
0.048789084406620 2.518071072629315 0.131991281644704 30
0.057093728253933 2.515898691992070 0.131886609732218 33
0.065048947562630 2.517703504384657 0.131991281644704 30
0.073895530866256 2.519457503029534 0.132095953557190 27
0.082886196623173 2.525172762097820 0.132409969294648 16
nan nan nan 0
0.678179496318331 16.885195224036831 0.885629051543095 10
0.727096985264361 16.653258881466048 0.873591781607218 10
0.775062228344864 16.435154860874885 0.862287215058743 9
0.822120087716091 16.228889728231842 0.851610679985182 11
0.859251072731262 16.020956569173581 0.840829472999135 14
0.906994714634766 15.826276870082445 0.830780969400490 13
0.946899417269579 15.615848024815858 0.819895090501958 15
0.990025002188575 15.435056064335926 0.810579290290714 15
1.034697585223841 15.255967815123286 0.801368161991956 14
1.071815706198034 15.063191647899432 0.791424330305797 14
1.109667326379236 14.862178739074936 0.781061810969694 17
1.148308101818610 14.688964094919340 0.772164698408393 16
1.186241126019655 14.521634726457664 0.763581601584550 16
1.224715705076228 14.374121992705485 0.756045223885566 16
1.260939532735066 14.212593230478605 0.747776142799181 18
1.295867325186820 14.048999821391938 0.739402389800310 16
1.331329054531183 13.877152879851183 0.730609949151496 16
1.365331079189269 13.727337069311648 0.722968899540026 16
1.396750910081168 13.585645725880379 0.715746537578500 19
1.429381363379523 13.441663093709586 0.708419503704488 17
1.462907729918135 13.293394142107820 0.700883126005504 17
1.493973988658540 13.153260707561598 0.693765435956463 21
1.523664576493496 13.029209740673355 0.687485121207310 21
1.551934479002613 12.881041614678695 0.679948743508326 19
1.583367798602503 12.766531864484904 0.674191788321602 21
1.610735098456833 12.626205312365750 0.667074098272562 21
1.637142238405498 12.485844898543043 0.659956408223522 21
1.665788146293272 12.369208295965219 0.654094781124312 21
1.690955151476804 12.248863613295224 0.648023810200130 22
1.720136792935801 12.131844754372008 0.642162183100921 22
1.742854830114310 12.005504920561858 0.635777196439282 22
1.767415004510702 11.882792015579991 0.629601553602614 22
1.795601006090924 11.775538050407528 0.624263286065834 24
1.817413555855721 11.659006962652487 0.618401658966624 22
1.838655331872069 11.556589770463063 0.613272735254816 24
1.858459325388409 11.423935278286827 0.606573732855719 22
1.881618408731556 11.316897634915906 0.601235465318939 25
1.908400994919463 11.235436467021815 0.597257932644475 25
1.933851297139477 11.137846758825139 0.592443024670124 25
1.955988093270377 11.036631087621958 0.587418772870802 27
1.976020441923836 10.927536197259311 0.581975833421535 27
1.996764255054419 10.826293704781918 0.576951581622213 27
2.018671110532821 10.734854966683177 0.572450689385320 29
2.038460284015589 10.635550014467634 0.567531109498483 27
2.061409049389221 10.555841137006919 0.563658248736505 17
nan nan nan 0
2.091438944139470 10.325866538579239 0.552144338363057 15
nan nan nan 0
2.129711777474384 10.158919705437496 0.543979929189158 31
2.150161827590901 10.081104075981468 0.540211740339666 33
2.167554157109210 9.991559172847317 0.535815520015259 33
2.185208249875826 9.905917417890588 0.531628643515823 33
2.201013786484404 9.822608261886405 0.527546438928874 36
2.221022085553571 9.744371772475999 0.523778250079382 36
2.240264546369135 9.680523835794231 0.520742764617291 43
2.255301381582083 9.592930616840398 0.516451216205370 39
2.272341623230516 9.508840178658346 0.512369011618420 37
2.290683208845719 9.446904210325236 0.509438198068815 43
2.305502815138899 9.365155112710397 0.505460665394351 46
2.327526963857331 9.314421419335199 0.503157883319662 45
2.336814698080260 9.221465103327452 0.498552319170283 45
2.352078686893833 9.147484425305839 0.494993474145763 48
2.368942923573709 9.075029616502048 0.491539301033728 39
2.385781387859959 9.010714022291072 0.488503815571638 45
2.401681952221375 8.944463199078843 0.485363658197061 50
2.415575252380763 8.872430526539539 0.481909485085027 40
2.426869575318260 8.792709539738043 0.478036624323049 50
2.444632440807462 8.738022927456242 0.475524498423388 52
2.457684687538899 8.667947897203439 0.472174997223839 48
2.475241438230650 8.615165365666945 0.469767543236664 56
2.487060137119797 8.549376980640938 0.466627385862087 56
2.497127656581744 8.473590379691744 0.462963868925081 52
2.509552940479741 8.407407578631203 0.459823711550504 46
2.525014450303948 8.352712861064107 0.457311585650843 50
2.537201823285027 8.288464280716688 0.454276100188752 52
2.547789087459388 8.220417602439165 0.451031270901690 55
2.561290291051610 8.168091130482191 0.448623816914515 61
2.577305401194816 8.114866839722504 0.446216362927339 65
2.591372521630957 8.066343176765256 0.444018252765135 61
2.602840526514447 8.005964696063328 0.441192111128016 55
2.613432091004201 7.939457361276162 0.438051953753440 53
2.623976819388478 7.883371225325007 0.435435155941293 61
2.640006188760018 7.840092907636151 0.433551061516547 61
2.599739439742707 7.632317699115948 0.422560510705528 65
2.664749200398195 7.734608006203223 0.428736153542196 59
2.677274242443590 7.683766082491511 0.426433371467506 61
2.686822024437002 7.625396490237192 0.423711901742873 61
2.698676390923887 7.574580126378655 0.421409119668184 57
2.711601912653471 7.531764057675235 0.419525025243438 59
2.721481687516650 7.477209483911255 0.417012899343776 65
2.729634540235321 7.418929430052454 0.414291429619143 63
2.740198655858453 7.368172139732216 0.411988647544454 63
2.751847303671541 7.321171104042910 0.409895209294736 58
2.762492142123856 7.272311891005698 0.407697099132532 54
2.726112985167565 7.098064026419418 0.398485970833774 61
2.758821656308718 7.108986499331583 0.399637361871119 66
2.795285090568744 7.129064023476591 0.401312112470893 66
2.806912982579962 7.085839453912556 0.399428018046147 66
2.819757414624946 7.046329573679007 0.397753267446373 68
2.829366323806869 6.999409939792617 0.395659829196655 68
2.831729217452439 6.942403984548985 0.392938359472022 68
2.841172358315808 6.893200830377096 0.390740249309819 65
2.850633601103009 6.848207382720612 0.388751482972587 65
2.868329186702895 6.823485496560888 0.387914107672700 65
2.875362865697579 6.770644652507736 0.385506653685524 62
2.882850045759585 6.726193101877752 0.383517887348292 70
2.890447133390570 6.679429224020873 0.381424449098575 70
2.899352269618828 6.636355139369066 0.379540354673829 65
2.904885067384196 6.592487659710319 0.377551588336597 65
2.922197395717825 6.569533462005168 0.376818884949196 68
2.925796198435589 6.513231870830497 0.374202087137048 65
2.931193854354959 6.464779936649554 0.372003976974845 70
2.941275735351440 6.427266897805966 0.370433898287556 65
2.954481346129901 6.397015429495965 0.369282507250212 65
2.965824188575126 6.363129768586026 0.367921772387895 65
2.968465836761787 6.311169927915283 0.365514318400720 60
2.977013684336408 6.269576257514281 0.363734895888460 68
2.981620708974418 6.223122480229022 0.361641457638742 41
2.982254958454075 6.171839457843711 0.359234003651566 24
nan nan nan 0
3.021933976036626 6.141380766431326 0.358710644089137 100
3.019375590449733 6.082492685134180 0.355884502452018 57
3.025064361402031 6.046184490940347 0.354314423764730 63
3.037152084984046 6.017757816789866 0.353267704639871 71
3.047266091648684 5.985760868160608 0.352011641690040 74
3.053669774301101 5.944350452502753 0.350232219177780 71
3.059587373015065 5.907588663632172 0.348662140490492 71
3.062620683749238 5.863237000081487 0.346673374153260 60
3.074778084811075 5.834303552652999 0.345626655028401 60
3.084738019317604 5.806437119262484 0.344579935903542 63
3.088953213032578 5.765705148176967 0.342800513391282 66
3.093871157892659 5.726772081401515 0.341125762791508 69
3.100466041198040 5.691383063010990 0.339660356016705 72
3.114544331058136 5.670022459637123 0.339032324541790 72
3.123689256281994 5.637604866190375 0.337776261591959 69
3.129712049562152 5.602256107654989 0.336310854817157 69
3.127695647025417 5.555298787053438 0.334112744654953 66
3.139180814624757 5.530451639900044 0.333275369355066 66
3.151522703561299 5.507325668983885 0.332542665967665 69
3.158751349114383 5.475530942395355 0.331286603017834 69
3.158823866802081 5.433945322309945 0.329402508593088 69
3.165655290271668 5.402207557414535 0.328146445643258 69
3.171287992397896 5.368768906230023 0.326785710780941 65
3.179791334129463 5.340505330089097 0.325738991656082 65
3.189063238544160 5.311691499769610 0.324692272531224 62
3.195176620236364 5.280022290088040 0.323436209581393 65
3.198112458533235 5.245523377577740 0.321970802806590 68
3.208038110094668 5.220714587670735 0.321133427506703 68
3.214820165289651 5.193065742311020 0.320086708381844 68
3.223257118851924 5.164304699669191 0.319039989256986 68
3.226711527243494 5.133861129416607 0.317783926307155 65
3.226444269193946 5.093882854107158 0.316004503794895 62
3.234343712756765 5.065189664921396 0.314957784670036 59
3.242478974107240 5.040998162158917 0.314120409370149 62
3.251575484276624 5.018484733043442 0.313387705982748 62
3.253787206779278 4.983690729996829 0.311922299207945 65
3.258855525635353 4.951711133808710 0.310666236258115 65
3.265082227644136 4.923660203683087 0.309619517133256 68
3.274227153415835 4.898376275534499 0.308782141833369 62
3.282380154921611 4.873664590361284 0.307944766533482 65
3.283671805183277 4.839039768165405 0.306479359758679 60
3.289270853948240 4.811060605667119 0.305432640633820 63
3.293581736508040 4.781456709631981 0.304281249596475 57
3.303419763898287 4.760085775131643 0.303653218121560 57
3.314293247102507 4.740341397100069 0.303129858559131 63
3.314717904629229 4.705883527166825 0.301664451784328 63
3.315622262990251 4.675896043442505 0.300408388834498 63
3.322636393233303 4.651292358711871 0.299571013534610 63
3.333468451328335 4.628775775242945 0.298942982059695 63
3.341395767797095 4.605795148792645 0.298210278672294 66
3.341334350032948 4.573723768400284 0.296849543809977 60
3.343073573753055 4.542729088834922 0.295593480860147 60
3.353362881824672 4.525199357404471 0.295174793210203 57
3.356780941115525 4.495274847252198 0.294023402172858 57
3.366086551859779 4.478320845696372 0.293604714522915 57
3.368436739539762 4.449027869692545 0.292453323485570 60
3.372166186906205 4.418596427830719 0.291301932448225 63
3.379498478167694 4.397887529184347 0.290673900973310 63
3.387494496202447 4.376587532745694 0.290045869498395 66
3.389243146770586 4.347409673861360 0.288894478461050 71
3.390829538010244 4.318273145575336 0.287743087423705 68
3.394731886992398 4.292311798876071 0.286801040211332 71
3.407951821293650 4.276716682608714 0.286591696386360 68
3.414108666704112 4.253891236039950 0.285858992998959 65
3.418892231340974 4.229521791872047 0.285021617699072 65
3.427330313024185 4.209817533639999 0.284498258136643 70
3.414683534271413 4.165990756978381 0.282300147974439 60
3.426661775183787 4.150965412612901 0.282090804149467 63
3.442407329397725 4.140514640935230 0.282195476061953 73
3.451710608450895 4.122347840372009 0.281776788412010 73
3.444765323660762 4.086445731111303 0.280102037812235 73
3.443497444794789 4.056125524437673 0.278845974862405 75
3.458340758711252 4.043477231163732 0.278845974862405 72
3.467220193882053 4.025327610626495 0.278427287212461 72
3.474706382741882 4.005656620421865 0.277903927650032 77
3.471585576517280 3.973949351393391 0.276543192787715 72
3.472873761479413 3.948917300398350 0.275601145575342 75
3.480701600873441 3.928687386051390 0.275077786012913 72
3.487710108179131 3.911770006147032 0.274659098362969 70
3.496006071513972 3.893627324882210 0.274240410713026 70
3.500210319680269 3.868327092973218 0.273403035413139 67
3.502259280120689 3.844886460707981 0.272565660113251 70
3.506891070891279 3.824419033400181 0.271937628638336 68
3.516154500923952 3.807752373585618 0.271623612900878 71
3.514463663391707 3.779366869715024 0.270472221863534 66
3.513982867297519 3.752497609168261 0.269425502738675 71
3.520860266760885 3.732328846623740 0.268902143176245 71
3.532491494645719 3.718567971638795 0.268797471263760 71
3.537166435906507 3.697555240460890 0.268169439788844 71
3.547280449859657 3.682308894839554 0.267960095963872 76
3.542786897408362 3.653319854368855 0.266704033014042 68
3.544354458528900 3.629499468607512 0.265866657714155 45
3.557633432345961 3.616484381463606 0.265866657714155 33
3.568830039765536 3.602624975510201 0.265761985801669 14
3.570099413534287 3.578833487078243 0.264924610501782 6
3.582570123443458 3.566349711029585 0.264924610501782 2
nan nan nan 0
nan nan nan 0
nan nan nan 0
0.684500640075382 0.662632642116949 0.049928502255768 4
0.629109822383636 0.604983086584738 0.045741625756333 7
0.628433620653804 0.599914990422872 0.045532281931361 7
0.630315204887244 0.597937750765140 0.045532281931361 7
0.629490977474609 0.592994890837573 0.045322938106389 7
0.622907387220596 0.582498714391040 0.044694906631474 8
0.639468749779372 0.594023081814818 0.045741625756333 7
