# This PCD file was generated using the MATLAB® pcwrite function
# from Computer Vision Toolbox®.
# .PCD v.7 - Point Cloud Data file format
VERSION .7
FIELDS x y z intensity
SIZE 8 8 8 1
TYPE F F F U
COUNT 1 1 1 1
WIDTH 956
HEIGHT 1
VIEWPOINT 0 0 0 1 0 0 0
POINTS 956
DATA ascii
nan nan nan 0
nan nan nan 0
nan nan nan 0
-7.475764041714811 7.872306295728928 0.189498229096024 1
-4.207726850872796 4.462009680688307 0.107053061086297 1
-4.211261781611566 4.497104955788358 0.107541728466541 1
-4.207221698802121 4.522758474229012 0.107820966969538 2
-4.194122457825707 4.540354654549327 0.107890776595287 1
-4.224207487863864 4.605070378364655 0.109077540233022 1
-4.235038942278359 4.649354198920417 0.109775636490513 1
-4.221466717582734 4.667074965147741 0.109845446116262 1
-4.298686724677419 4.785920984752107 0.112288783017482 1
-4.255333760750143 4.771050000078440 0.111590686759991 1
-7.577074212585365 8.555293899416162 0.199481005578151 1
-4.274273105180757 4.858458116912564 0.112951974462099 4
-4.262550288908783 4.879372431568939 0.113091593713597 26
nan nan nan 0
nan nan nan 0
-4.298304723500593 5.025559508067337 0.115430216176193 3
-4.307919446277199 5.072540995531302 0.116163217246559 4
-4.308234389069638 5.108949479751271 0.116651884626803 4
-7.765552314489113 9.274331322722597 0.211139213078256 1
-7.703388808742760 9.268897495087852 0.210371307195015 3
-7.653168600870869 9.274138000059553 0.209882639814772 3
-7.640119454793680 9.321117670622563 0.210371307195015 4
-7.656763597291019 9.408217924955672 0.211732594897124 4
-7.679577697666221 9.500428509240836 0.213233501850730 3
-4.462154645383601 5.559729461738681 0.124435657897831 2
-4.486600795441330 5.632354637748844 0.125692231161316 1
nan nan nan 0
-4.399983926215039 5.601433679474198 0.124330943459208 3
-4.440662698632178 5.694024270486712 0.126041279290062 1
nan nan nan 0
nan nan nan 0
nan nan nan 0
nan nan nan 0
nan nan nan 0
-4.693739827870802 6.285679929045839 0.136931580906926 2
-4.684869648302775 6.319696576780830 0.137315533848547 10
-4.649743477007798 6.318294970969128 0.136931580906926 10
nan nan nan 0
-4.591432753493663 6.331176316180360 0.136512723152432 53
-4.561000161293158 6.330967025307769 0.136198579836561 48
-4.533057089547495 6.338716500929388 0.136024055772188 51
-4.501642964796145 6.341456296631392 0.135744817269191 51
-4.470265059404718 6.344054175023641 0.135465578766195 53
-4.443508462075062 6.353065042335767 0.135325959514696 57
-4.415603088421791 6.360323848281284 0.135151435450324 58
-4.389970556088388 6.370758581191176 0.135046721011700 57
-4.355287837271951 6.367887388561981 0.134662768070080 48
-4.352130240772141 6.413592027707585 0.135291054701822 61
-4.367696077912071 6.485137221068864 0.136477818339557 42
-4.382847774084925 6.554441201289583 0.137629677164418 38
-4.401960009391582 6.633014645626197 0.138956060053651 41
-4.416246899254234 6.702679844352922 0.140107918878512 36
-4.430032042235525 6.774958886772612 0.141294682516247 40
-4.441188887155032 6.844060212650968 0.142411636528233 7
nan nan nan 0
nan nan nan 0
nan nan nan 0
nan nan nan 0
nan nan nan 0
nan nan nan 0
-5.050730532658281 8.216270245082008 0.168345912494037 2
-5.010957876323837 8.212489614361447 0.167927054739542 3
-4.969833237271414 8.209403303386622 0.167508196985047 15
-4.946294894518931 8.235272510458740 0.167682721049420 11
-4.920589184213469 8.257641640123031 0.167787435488044 1
-4.437872860987127 7.507023216636752 0.152219888945987 1
-4.389385951211390 7.484519842189910 0.151451983062746 1
nan nan nan 0
nan nan nan 0
nan nan nan 0
-4.128443968244428 7.270329895299972 0.145937022628565 1
-4.133761725109152 7.336245201373082 0.146984167014802 1
nan nan nan 0
-5.296223147499320 9.554639480662706 0.190684992733760 1
nan nan nan 0
nan nan nan 0
nan nan nan 0
-4.455475018920866 8.309425794395620 0.164576192703584 3
-4.431136566333372 8.333755811867045 0.164750716767956 10
-5.145326412002755 9.758979914202371 0.192569852628986 2
-4.840706191697255 9.259416934096890 0.182377647269613 2
-4.961118362083797 9.570967555774606 0.188171846206791 2
-5.037366019928665 9.801654199605396 0.192360423751739 1
-5.177339752059590 10.152338987611181 0.198922528572157 1
-5.214049192064574 10.313116217533924 0.201714913602123 1
nan nan nan 0
nan nan nan 0
-4.765695181096627 9.680905902118772 0.188346370271164 4
-4.767827298947555 9.771165916112681 0.189777467599021 6
nan nan nan 0
nan nan nan 0
nan nan nan 0
nan nan nan 0
nan nan nan 0
nan nan nan 0
nan nan nan 0
-7.505355613215226 16.522463480850178 0.316761176836696 2
nan nan nan 0
-7.228592547149731 16.212833150007690 0.309850023887531 2
-5.855953170972459 13.264680903908895 0.253094798153486 1
nan nan nan 0
-7.187515425199893 16.593474221425453 0.315644222824710 2
-7.142164087760844 16.647865688913974 0.316202699830703 2
-7.085353891790763 16.667777783010436 0.316132890204954 2
nan nan nan 0
-5.583085571506738 13.386153263077533 0.253164607779235 8
nan nan nan 0
nan nan nan 0
-5.451607259757596 13.466126900908304 0.253583465533729 4
-5.445343307176180 13.593682975765173 0.255607944680454 6
-6.600823466136045 16.646306735702058 0.312572599291748 27
-6.577746421870587 16.758595889423887 0.314248030309727 42
-6.511242665813195 16.760950578288568 0.313864077368107 40
-6.454907619834583 16.780584103953434 0.313829172555232 40
-6.394870303384216 16.799275962524955 0.313759362929483 31
-6.332074642218063 16.801677556123842 0.313410314800737 27
-6.271291245711658 16.818057251425984 0.313305600362114 36
-6.211162806146200 16.836093487948677 0.313235790736364 42
-6.148242578056729 16.846400912306212 0.313026361859117 48
-6.086684150488481 16.860236117519019 0.312886742607619 46
-6.027793861261064 16.881379891834786 0.312886742607619 44
-5.955512788977534 16.864606419048599 0.312188646350127 14
-5.907156537508730 16.915498540634278 0.312747123356121 46
-5.845153092462430 16.917983773448306 0.312432980040249 44
-5.783477036879600 16.930714758116199 0.312293360788751 42
-5.581338964478437 16.536861256732173 0.304649206769221 22
-5.656480624709081 16.954594418922436 0.311979217472880 55
-5.596466680267265 16.961864764688382 0.311769788595633 42
-5.538464489640852 16.985099091909017 0.311839598221382 46
-5.477915105260881 17.000521806652692 0.311769788595633 42
-5.394273100478959 16.943321455615042 0.310373596080650 23
nan nan nan 0
-0.805143552381163 2.591388882068073 0.047365831070787 6
-0.801372921340347 2.611388914157546 0.047679974386659 27
-0.789932670954882 2.606515353876073 0.047540355135160 33
-0.781976014302257 2.613088361549873 0.047610164760909 36
-0.767750420362886 2.598542356473737 0.047296021445038 39
-0.753977304306734 2.581746348169547 0.046946973316293 39
-0.746068482578747 2.588205409434195 0.047016782942042 43
-0.736577224336568 2.590922502644651 0.047016782942042 48
-0.725908398309234 2.587701732250619 0.046912068503418 45
-0.713670893206247 2.578656378744975 0.046702639626171 46
-0.701505420414904 2.569557262736670 0.046493210748923 37
-0.693571555322428 2.575852166328886 0.046563020374672 34
nan nan nan 0
-0.700853759667272 2.675299925361809 0.048273356205526 1
-0.666010546546502 2.578985136297433 0.046493210748923 1
-0.661936614461572 2.600673320741840 0.046842258877669 1
-0.644097919469097 2.568054932999844 0.046213972245927 2
-0.632698136300118 2.558529392114110 0.046004543368679 4
-0.625656407678115 2.568493873028978 0.046144162620178 6
-0.613887997743613 2.558995022750592 0.045934733742930 17
-0.601274180208374 2.545553168953488 0.045655495239934 8
-0.597361851441218 2.567009622193138 0.046004543368679 2
-0.583040489603306 2.545688459484040 0.045585685614185 1
-0.582064084442901 2.582822036140102 0.046213972245927 1
-0.565254167544672 2.549696780274170 0.045585685614185 1
-0.554646637622671 2.543839177783459 0.045446066362686 2
-0.541991043233853 2.528162340233786 0.045131923046815 5
-0.531101079993085 2.520255240071313 0.044957398982442 19
-0.522300511823078 2.522093774550440 0.044957398982442 50
-0.513892254725591 2.525861129027532 0.044992303795317 48
-0.503113060186462 2.517834906281546 0.044817779730944 50
-0.495200578791985 2.519403054968393 0.044817779730944 53
-0.487539660105414 2.527006737098633 0.044922494169568 56
-0.479087752744783 2.530657969273344 0.044957398982442 52
-0.468060578026739 2.520518382093005 0.044747970105195 46
-0.456314019029107 2.508445124451268 0.044503636415073 44
nan nan nan 0
-0.441543987739021 2.527328510701685 0.044782874918069 2
-0.432044731952300 2.524912293800407 0.044713065292320 4
-0.418482048345423 2.492731479470427 0.044119683473453 5
-0.409778242142991 2.494177067851519 0.044119683473453 12
-0.401069442921995 2.495592265472155 0.044119683473453 24
nan nan nan 0
-0.385154842510708 2.508214059937698 0.044294207537826 49
-0.373134492815173 2.487789890608301 0.043910254596205 26
nan nan nan 0
-0.360565024659950 2.523987378997329 0.044503636415073 1
-0.354403038059285 2.541013376731501 0.044782874918069 1
-0.345531086975107 2.542234993474811 0.044782874918069 1
-0.332456579007451 2.511707153651472 0.044224397912076 1
-0.321132307587340 2.493019252774640 0.043875349783331 2
-0.308948381715189 2.466346385491224 0.043386682403087 3
-0.301062212886355 2.473364923009285 0.043491396841711 10
nan nan nan 0
-0.284926466704173 2.485339855215560 0.043665920906083 59
-0.274041048127797 2.466444638031394 0.043316872777338 52
-0.265002112373763 2.463409745041658 0.043247063151589 55
-0.256384674787695 2.468342469566734 0.043316872777338 53
-0.247766989669869 2.469222381107608 0.043316872777338 55
-0.238612131441035 2.460078654937011 0.043142348712965 47
-0.229837297620857 2.458905562420555 0.043107443900090 45
-0.220715259203703 2.453717901392396 0.043002729461467 42
-0.212493238134371 2.458457927263298 0.043072539087216 20
-0.203414593786821 2.453206120381961 0.042967824648592 8
-0.194058637095093 2.443934119159906 0.042793300584219 17
-0.185677859430506 2.446590582287885 0.042828205397094 45
-0.177713995550284 2.455201723246081 0.042967824648592 45
-0.168469269436503 2.439817982938158 0.042688586145595 43
-0.160344047977132 2.446377427892805 0.042793300584219 42
-0.151060698805938 2.434947079331850 0.042583871706972 42
-0.142326521733799 2.431466988411834 0.042514062081223 36
-0.134497552676556 2.443929031630079 0.042723490958470 12
-0.126892048268904 2.462357035468697 0.043037634274341 1
-0.118296045128478 2.462784969854865 0.043037634274341 1
-0.109698600588074 2.463182895983384 0.043037634274341 1
-0.100443859506025 2.447566699944783 0.042758395771345 1
-0.091599564927856 2.439909252327426 0.042618776519846 2
-0.082809956843535 2.432219980233150 0.042479157268348 3
-0.074197284772619 2.428496697581634 0.042409347642599 5
-0.066019702441311 2.408728363700309 0.042060299513853 10
-0.057850320064409 2.418939759511543 0.042234823578226 25
-0.048712154137041 2.385139223686436 0.041641441759358 46
-0.040995514800056 2.421284088624881 0.042269728391101 53
-0.032382167303410 2.409415349508162 0.042060299513853 52
-0.023891967340724 2.401515319639442 0.041920680262355 55
-0.015547709072387 2.407583048399957 0.042025394700979 47
-0.053915051610952 18.171152027124382 0.317180034591191 21
0.045784746307629 10.930239111961029 -0.190789707172383 3
0.083938121996187 10.930012702614434 -0.190789707172383 1
0.124950841580539 11.013613441074861 -0.192255709313115 1
nan nan nan 0
0.187545429342113 10.232722484774206 -0.178642832292034 18
0.222259822098238 10.186023438918625 -0.177840021595919 10
0.256701093518219 10.141206339209532 -0.177072115712679 8
0.290659467521857 10.090276845149686 -0.176199495390814 20
0.322135080430553 9.973278901829248 -0.174175016244089 8
0.354728855562132 9.910142797346120 -0.173092967044978 14
0.384216549694312 9.778964196236741 -0.170824154208131 6
nan nan nan 0
0.452796781233686 9.820069003821615 -0.171592060091372 2
0.483307457661319 9.742533525758885 -0.170265677202138 2
0.514979199815096 9.696855723855837 -0.169497771318897 2
0.558205053329565 9.860708449546792 -0.172394870787487 26
nan nan nan 0
nan nan nan 0
nan nan nan 0
0.686670150913573 9.722296293996109 -0.170126057950640 2
0.727756569180490 9.839620649607850 -0.172220346723114 4
0.734450728563251 9.480144265498167 -0.165972385218566 40
0.770766474288527 9.517386195417174 -0.166670481476058 57
0.803815282567120 9.512645140869161 -0.166635576663183 76
0.834911778070815 9.485877414619791 -0.166216718908688 68
0.867107181640484 9.472948386066440 -0.166042194844315 72
0.897760311361016 9.462057850106214 -0.165902575592817 74
0.929608602982007 9.446925935265574 -0.165693146715570 72
0.962195838809662 9.423561773386954 -0.165344098586824 74
0.997605142340778 9.444009245139492 -0.165762956341319 68
nan nan nan 0
0.934974116332687 8.322369278808335 -0.146181356318687 7
0.957343516651382 8.261449226296131 -0.145169116745324 9
0.949659286391115 7.952276714255174 -0.139793775562641 19
0.991689577223911 8.041850789507906 -0.141434301767746 11
1.026046509272519 8.087935045531403 -0.142306922089610 11
1.046663567087672 8.036897276991960 -0.141469206580620 11
1.068082088023830 7.983643858112352 -0.140596586258756 21
1.093767047792825 7.964018124482224 -0.140317347755759 7
1.125465925658747 7.987873566618504 -0.140806015136003 2
nan nan nan 0
1.065749102874470 7.208532774104502 -0.127193138114922 24
1.515711428605993 10.010357826899941 -0.176723067583933 20
1.546357084492112 9.977340587723059 -0.176234400203689 38
1.835779031160450 11.577574239574487 -0.204612013070712 17
1.864338969757975 11.498060748051881 -0.203320534994353 13
1.881904025431951 11.355360653276009 -0.200912102906008 17
1.910513749098034 11.283658496223289 -0.199760244081147 29
1.931150319488447 11.168545723963399 -0.197840479373046 29
1.952049521589872 11.059335454556278 -0.196025429103568 29
1.974336798599673 10.961924791936164 -0.194419807711338 29
1.996329332630926 10.866461172972871 -0.192849091131983 31
2.013919757344485 10.771682310317457 -0.191278374552627 29
2.034286991085819 10.674227123525505 -0.189672753160397 19
2.050186436837710 10.557131878274584 -0.187718083639421 30
2.074218997284724 10.485175658760401 -0.186566224814561 33
2.096429721703074 10.397132845478627 -0.185135127486703 31
2.115017553968722 10.303562104324467 -0.183599315720223 35
2.129561536004504 10.202531419434344 -0.181923884702243 33
2.148129877768783 10.114836844059470 -0.180492787374386 35
2.165267664543904 10.023228713724137 -0.178991880420780 38
2.185653882032121 9.949203307220319 -0.177805116783044 36
2.201213059951343 9.863833177631212 -0.176408924268062 46
2.217494551707579 9.776133012251137 -0.174977826940204 50
2.234089130970596 9.692337543244253 -0.173616539238096 48
2.253317609601153 9.622175411171748 -0.172499585226110 48
2.269307187608721 9.540325393982593 -0.171173202336877 46
2.288039754906364 9.472088422285358 -0.170091153137765 50
2.305581734994635 9.393724700452839 -0.168834579874281 53
2.316603491926271 9.298302375231225 -0.167263863294925 48
2.334198726608711 9.238222420222819 -0.166321433347312 55
2.350539827394158 9.168032831520698 -0.165204479335326 57
2.367849931242609 9.109867683668890 -0.164296954200587 53
2.380262427330109 9.028069304670133 -0.162970571311353 55
2.393682595172388 8.952091650893223 -0.161748902860744 61
2.410264579118529 8.889641227942620 -0.160771568100256 53
2.426919803266701 8.822904985149799 -0.159724423714019 53
2.441590141983820 8.756593121733623 -0.158677279327782 63
2.453879941319081 8.694992809719587 -0.157699944567294 67
2.465521326452117 8.621005290162227 -0.156513180929559 63
2.480395579331026 8.554293195905586 -0.155466036543322 65
2.497841490891476 8.503372999860193 -0.154698130660081 67
2.510067310192111 8.441374059666645 -0.153720795899593 58
2.519335549247573 8.365544597121261 -0.152499127448983 63
2.533938421733882 8.308881361362506 -0.151626507127119 67
2.545226624692170 8.242665302223225 -0.150579362740882 65
2.562050225997972 8.195558446220801 -0.149881266483391 65
2.577369484607817 8.144622013666623 -0.149113360600150 71
2.586264838833659 8.074635053490017 -0.147996406588164 68
2.589153727292854 7.987565685899987 -0.146565309260307 26
2.466193663557945 7.518657336035930 -0.138118344544662 11
2.469748075243654 7.441678392700941 -0.136861771281177 11
2.467681114769973 7.358046139620027 -0.135465578766195 9
2.462512830185185 7.258490666628901 -0.133790147748215 21
nan nan nan 0
2.514437543521185 7.244900644697827 -0.133859957373965 47
2.541036138476554 7.239853186389042 -0.133929766999714 45
2.572980739888352 7.249784501071138 -0.134278815128459 49
2.598271534937917 7.240758954041977 -0.134278815128459 49
2.625576574693230 7.237284623213548 -0.134383529567083 52
2.691446424796995 7.338843469770685 -0.136442913526683 33
2.732339017408479 7.370654020165655 -0.137210819409923 14
nan nan nan 0
2.693085971868870 7.112025256084342 -0.132743003361978 80
2.764348803812701 7.223976986421398 -0.135011816198825 28
2.183751912507097 5.647582919591398 -0.105691773384189 19
2.201996967009589 5.636200613715981 -0.105621963758440 46
2.222391752884329 5.630339911837955 -0.105656868571314 57
2.238328378184529 5.613260687551501 -0.105482344506942 63
2.248942792996071 5.583154840910510 -0.105063486752447 65
2.271432447902859 5.582679548487549 -0.105203106003945 59
2.293186062388947 5.580265580258588 -0.105307820442569 53
2.321082792269190 5.592543242610716 -0.105691773384189 38
2.343682199446058 5.591784103873511 -0.105831392635687 29
2.867844199856128 6.779233389458851 -0.128484616191281 64
2.874994796807942 6.730563456588257 -0.127751615120915 54
2.890552011630970 6.702124861115314 -0.127402566992170 67
2.899559121305866 6.658992505168560 -0.126774280360427 69
2.906691043021862 6.612218082929398 -0.126076184102936 65
2.908665243185812 6.554508624595358 -0.125168658968197 65
2.928257058610315 6.537015705803864 -0.125029039716699 65
2.934580511250611 6.490312399221371 -0.124330943459208 65
2.945595071518099 6.454560307666500 -0.123842276078964 65
2.951376586231622 6.407912901812873 -0.123144179821472 63
2.960240108166083 6.368557705436145 -0.122585702815479 65
2.970563440832973 6.332839896754418 -0.122097035435235 63
2.976395970911439 6.288090715461714 -0.121433843990619 60
2.990570846633902 6.261422843840836 -0.121119700674748 63
2.992226099984964 6.211836637586281 -0.120351794791507 69
2.998157455764836 6.168980317040705 -0.119723508159765 63
3.007347754124159 6.133340569258213 -0.119234840779521 69
3.021645721197394 6.108466476969199 -0.118955602276524 65
3.032235227339564 6.076410335574706 -0.118536744522030 63
3.032747516818780 6.024707231065706 -0.117733933825915 63
3.041989590523119 5.990905164712470 -0.117280171258545 67
3.051944350632949 5.958892104581668 -0.116861313504050 65
3.059877257602593 5.923329517732453 -0.116372646123806 63
3.071295137615434 5.894878175362751 -0.116023597995061 65
3.075110502680481 5.852257967521559 -0.115395311363319 57
3.077729616010334 5.807916403616002 -0.114732119918702 59
3.086674325315721 5.775973864858646 -0.114313262164207 57
3.096382319601155 5.745800261352760 -0.113929309222587 61
3.106872185675972 5.717386531113920 -0.113580261093841 63
3.109514228267125 5.674940274194031 -0.112951974462099 61
3.112848341812852 5.636589651784364 -0.112393497456106 65
3.124722126431299 5.611712575099518 -0.112114258953109 59
3.128628899097782 5.572871837683365 -0.111555781947116 59
3.135257780032751 5.539293365947850 -0.111102019379747 59
3.143672655996133 5.509210446307748 -0.110718066438127 59
3.150918722770584 5.477403151773435 -0.110299208683632 63
3.155974842359246 5.442152923192639 -0.109810541303388 61
3.164860245041103 5.413839839787500 -0.109461493174642 61
3.173586563039320 5.385531245961941 -0.109112445045897 59
3.178069015083135 5.350350849270930 -0.108623777665653 63
3.190562509756852 5.328930586929317 -0.108414348788405 57
3.190546764170753 5.286943305015130 -0.107786062156663 59
3.198590420654372 5.258689248179136 -0.107437014027917 59
3.210656371587563 5.237263016936130 -0.107227585150670 61
3.213152068238387 5.200506133059948 -0.106704012957551 65
3.215430466892637 5.163795951291808 -0.106180440764433 61
3.228286010658694 5.146328864108691 -0.106040821512935 68
3.235544963669497 5.118126027865264 -0.105691773384189 61
3.241758079281551 5.090501298069626 -0.105342725255443 61
3.248707271300983 5.062324899999953 -0.104993677126698 57
3.243343762894284 5.013446142555384 -0.104225771243457 58
3.253179933188266 4.990367940637797 -0.103981437553335 54
3.262027595826664 4.967851706456965 -0.103737103863213 56
3.270521442694162 4.943093157424085 -0.103457865360217 60
3.271370201154833 4.908923950446122 -0.102969197979973 60
3.272879240781378 4.874232577145895 -0.102480530599729 58
3.283150373298708 4.852840843058942 -0.102271101722481 58
3.288806909618082 4.824827562332108 -0.101922053593736 56
3.300512788141016 4.802275905994043 -0.101712624716488 62
3.305871895087155 4.774285332760726 -0.101363576587743 56
3.297983518147984 4.731067022891783 -0.100665480330251 58
3.307582346347074 4.709707379854895 -0.100456051453004 56
3.317072325318689 4.688338490688041 -0.100246622575756 58
3.328774829247900 4.670217631337007 -0.100107003324258 58
3.331870219119420 4.638496212845061 -0.099688145569763 60
3.336318459934676 4.610637144432288 -0.099339097441018 60
3.340612948782942 4.582803737512756 -0.098990049312272 58
3.347121049158308 4.558220360854745 -0.098710810809276 60
3.355876712842805 4.536862899180099 -0.098501381932028 60
3.362134567365393 4.512292938348189 -0.098222143429032 58
3.363460384560701 4.481337385067325 -0.097803285674537 58
3.374258864505454 4.463188873839778 -0.097663666423039 60
3.382548656553809 4.441837824327943 -0.097454237545791 62
3.393164714339661 4.423656755041748 -0.097314618294293 62
3.392691794442218 4.391213996442474 -0.096860855726923 64
3.389577704395358 4.355672406605808 -0.096337283533805 64
3.399826751474090 4.337518653487011 -0.096197664282307 62
3.402555850621329 4.309929318003256 -0.095848616153561 62
3.411852209701659 4.292360689302090 -0.095708996902063 60
3.411817558189415 4.261692238889577 -0.095290139147568 64
3.408362202268163 4.228558120577329 -0.094801471767324 62
3.420581166183322 4.213529921305868 -0.094731662141575 60
3.430205257424901 4.195371763903224 -0.094592042890077 64
3.439744321464316 4.177197833790350 -0.094452423638578 56
3.439709765723443 4.146094356870560 -0.094033565884084 38
3.446468370213967 4.124855004049185 -0.093824137006836 26
3.453691682604742 4.105752003166114 -0.093649612942463 10
3.466709806752970 4.092145574412596 -0.093614708129589 4
nan nan nan 0
nan nan nan 0
nan nan nan 0
nan nan nan 0
0.622699126885315 0.709302734655317 -0.016475071676796 5
0.625171261783687 0.707124787751806 -0.016475071676796 5
0.627512734678260 0.705047757127030 -0.016475071676796 5
0.592598886647409 0.661158362039477 -0.015497736916308 7
0.632419564550558 0.700649745869452 -0.016475071676796 5
0.613340709028565 0.674762059293810 -0.015916594670803 6
0.618392736446938 0.675567064315110 -0.015986404296552 6
0.631589882886481 0.685166876534293 -0.016265642799548 6
0.606654277730774 0.653752429292323 -0.015567546542057 14
0.606201964149675 0.648708716460284 -0.015497736916308 22
0.608575528712550 0.646482517940519 -0.015497736916308 22
0.621834384487855 0.655964240881490 -0.015776975419304 20
0.613073960892025 0.642218139440670 -0.015497736916308 22
0.612540309882648 0.637190982224628 -0.015427927290559 15
0.634118493612684 0.655274292241399 -0.015916594670803 6
0.658731857971967 0.675971087625828 -0.016475071676796 5
0.661204991287122 0.673552174304442 -0.016475071676796 5
0.663552098850507 0.671240034655511 -0.016475071676796 5
0.665774362584678 0.669035925895022 -0.016475071676796 5
0.628472290003133 0.627157397188848 -0.015497736916308 7
0.633498449211618 0.627774932870958 -0.015567546542057 7
0.638536542745974 0.628364986827003 -0.015637356167806 7
0.632144903161780 0.617746550347391 -0.015427927290559 7
0.628557141917530 0.609965726071366 -0.015288308039060 15
0.630682490257272 0.607767936074443 -0.015288308039060 15
0.629910655510131 0.602797613947535 -0.015218498413311 15
0.646506638769476 0.614370260935256 -0.015567546542057 14
0.637012324155519 0.601130240889017 -0.015288308039060 23
0.639106779384541 0.598902990627048 -0.015288308039060 15
0.644121271259417 0.599392956359137 -0.015358117664809 22
0.646105388333440 0.597253677584566 -0.015358117664809 22
0.645239955267614 0.592290188812503 -0.015288308039060 23
0.638436331559145 0.581951611346274 -0.015078879161813 24
0.640463832202272 0.579719507213621 -0.015078879161813 24
0.649919680951691 0.584164139606046 -0.015253403226186 31
0.643003509836306 0.573902574636131 -0.015043974348938 41
0.655377168236791 0.581053383942670 -0.015288308039060 38
0.640891348689618 0.564227028219964 -0.014904355097440 42
0.648978037411231 0.567137713252836 -0.015043974348938 33
0.646422763001092 0.560937099849320 -0.014939259910315 25
0.654436457482389 0.563898528567973 -0.015078879161813 24
0.674634200395777 0.577210980324199 -0.015497736916308 14
0.667501082177920 0.567084273215727 -0.015288308039060 23
0.657248627609849 0.554435721555377 -0.015009069536064 16
0.671443778569598 0.562410454968151 -0.015288308039060 15
0.667253068884988 0.554948519496703 -0.015148688787562 16
0.675353749738775 0.557709225628444 -0.015288308039060 15
0.674203726107647 0.552812565892464 -0.015218498413311 15
0.697641510640662 0.568374531074141 -0.015707165793555 14
0.680964690858281 0.550844222481809 -0.015288308039060 15
0.707828857758719 0.568499065546922 -0.015846785045053 13
0.716062801081024 0.571011821055979 -0.015986404296552 13
0.714916045113580 0.566026245374933 -0.015916594670803 13
0.701166273030756 0.551169219984952 -0.015567546542057 14
0.715892278815000 0.558310956848244 -0.015846785045053 13
0.717836786285910 0.555808625030642 -0.015846785045053 13
0.741868618166755 0.570491109811021 -0.016335452425297 11
0.734318875279232 0.560617285474833 -0.016126023548050 12
0.733083999342025 0.555634815236755 -0.016056213922301 12
0.754193470874045 0.567500467404394 -0.016475071676796 11
0.762578041212734 0.569651369791653 -0.016614690928294 10
0.790261407659148 0.586044358276473 -0.017173167934287 4
0.759899486708040 0.559836888847191 -0.016475071676796 5
0.800587139987417 0.585512167838233 -0.017312787185785 4
0.763982852365903 0.554251543348418 -0.016475071676796 5
3.777638186183644 2.720511497128080 -0.081258404371992 5
3.771529028444960 2.698158782243754 -0.080944261056121 13
3.774402736574098 2.680345983638081 -0.080804641804623 33
3.761316324846534 2.650368436405631 -0.080315974424379 50
3.793486090535802 2.653268529714667 -0.080804641804623 75
3.789583449892799 2.630887480627345 -0.080525403301626 65
3.793804024570812 2.614239380001977 -0.080420688863002 58
3.789701774012004 2.591949423114670 -0.080141450360006 58
3.792108287742943 2.574212586607909 -0.080001831108508 60
3.794437232205253 2.556490586325686 -0.079862211857009 58
3.803337932678306 2.543229953615604 -0.079862211857009 56
nan nan nan 0
3.675286083064470 2.421564380981207 -0.076825493136922 7
3.665724558885469 2.396042601732387 -0.076441540195302 5
3.677421286928867 2.385408705398511 -0.076511349821051 5
3.685725513093324 2.372557576852776 -0.076511349821051 5
3.699040466027795 2.362907025125243 -0.076616064259675 7
3.693345628886182 2.342060365281119 -0.076336825756678 7
3.687958440635861 2.320633918472246 -0.076057587253682 7
3.699428911727548 2.309864573198760 -0.076127396879431 7
3.700669728680477 2.292724452889865 -0.075987777627932 7
3.715464525093068 2.283981607241903 -0.076127396879431 7
3.706342421154805 2.260585653986365 -0.075778348750685 9
3.707367439521303 2.243493135932672 -0.075638729499187 9
3.715176105460153 2.230538340405223 -0.075638729499187 9
3.722939503150596 2.217556366472011 -0.075638729499187 9
3.720328075502470 2.198443410969629 -0.075429300621939 9
3.724529174139060 2.183421026303405 -0.075359490996190 9
3.728670770022626 2.168396124479569 -0.075289681370441 9
3.728913083248443 2.152021302343940 -0.075150062118943 9
3.732931441636967 2.137004868437065 -0.075080252493194 9
3.749434231052112 2.128244268316006 -0.075254776557567 9
3.732445279893973 2.101408637441962 -0.074766109177323 9
3.746376273791956 2.092920912747839 -0.074905728428821 9
3.750160822582261 2.077892535726053 -0.074835918803072 11
3.743371057519406 2.057084934354603 -0.074556680300075 9
3.768087473574505 2.053574913008887 -0.074905728428821 9
3.757640879589033 2.030901356901411 -0.074556680300075 9
3.754132135350961 2.012104469586781 -0.074347251422828 11
3.757601239095702 1.997110860615036 -0.074277441797079 13
3.771625785340660 1.987711507331570 -0.074417061048577 13
3.780313514173282 1.975460108262939 -0.074451965861451 13
3.769430916616041 1.953052821211617 -0.074102917732706 13
3.769110493236832 1.936228168437231 -0.073963298481208 13
3.782973828364086 1.926689848287957 -0.074102917732706 13
3.793246298001402 1.915275679690751 -0.074172727358455 13
3.787391401544696 1.895757622723676 -0.073928393668333 9
3.764672472478031 1.869618685800693 -0.073369916662340 5
3.419534219688357 1.683360825643103 -0.066528573338925 3
nan nan nan 0
3.411976248548843 1.648679158760450 -0.066144620397305 65
3.428531672591660 1.641941445417804 -0.066354049274552 66
3.419789869254917 1.623104238649798 -0.066074810771555 55
3.414016738111156 1.607242191881727 -0.065865381894308 56
3.419606260984577 1.595315257653795 -0.065865381894308 56
3.429060971747063 1.584448611523991 -0.065935191520057 56
3.434570838522331 1.572469301986919 -0.065935191520057 55
3.432754496461626 1.557166500311492 -0.065795572268559 56
3.434521183611122 1.543535021776793 -0.065725762642810 53
3.443274187347133 1.533764588657201 -0.065795572268559 53
3.450436547034306 1.522543261512528 -0.065830477081433 48
3.455730193584627 1.510489714441904 -0.065830477081433 43
nan nan nan 0
3.462515395386847 1.484751383675009 -0.065760667455684 13
3.552344324123294 1.508612470449544 -0.067366288847914 8
3.633431070114285 1.527353782980074 -0.068797386175772 8
3.697816848547334 1.539252591238870 -0.069914340187758 9
3.748847905548983 1.546694729829651 -0.070786960509622 5
3.622789173181417 1.479908282839185 -0.068308718795528 12
3.640909711626550 1.472501596188734 -0.068553052485650 14
3.638601801776479 1.456810396126441 -0.068413433234151 14
3.643664851440089 1.444100430210167 -0.068413433234151 14
3.637514064898792 1.426991114707149 -0.068204004356904 14
3.641102125583333 1.412290439300605 -0.068169099544029 14
3.644142879888462 1.398855390119566 -0.068134194731155 14
3.649003595070191 1.386126435312867 -0.068134194731155 14
3.659435350110697 1.375491319360294 -0.068238909169779 12
3.647345910034511 1.356435784966695 -0.067924765853907 14
3.644551732961713 1.340933943065753 -0.067785146602409 14
3.656261849725049 1.332216015677958 -0.067924765853907 14
3.659008637872935 1.318767134386916 -0.067889861041033 12
3.665473295981441 1.306658234822958 -0.067924765853907 14
3.664354274992363 1.291860746354351 -0.067820051415284 14
3.657511973622835 1.275112138804119 -0.067610622538036 14
3.665721706334267 1.263640665225648 -0.067680432163785 14
3.666324732386110 1.249547022089982 -0.067610622538036 14
3.674454179689094 1.238018513782194 -0.067680432163785 14
3.665472586955182 1.220761683090824 -0.067436098473663 15
3.669711509138553 1.207959358719775 -0.067436098473663 15
3.667992570850179 1.193926708350149 -0.067331384035040 15
3.674041454560443 1.181728045405645 -0.067366288847914 15
3.680457854740587 1.168217042578740 -0.067401193660789 15
3.678789013840539 1.153567759401438 -0.067296479222165 14
3.672845114507508 1.139043198467085 -0.067121955157792 16
3.676798741030918 1.126215637029275 -0.067121955157792 17
3.680707566921995 1.113374353009340 -0.067121955157792 17
3.692235759934215 1.102808675007136 -0.067261574409291 17
3.677071570410797 1.083615882083422 -0.066912526280545 17
3.673151293757866 1.068539635227353 -0.066772907029047 17
3.680518386079396 1.057457545701824 -0.066842716654796 17
3.680339463711100 1.043512726677343 -0.066772907029047 19
3.691842784580623 1.032170319165763 -0.066912526280545 21
3.685784681129790 1.016618573216706 -0.066738002216172 21
3.677558858616413 1.001238628070972 -0.066528573338925 21
3.690687859523715 0.990988304855846 -0.066703097403298 22
3.688325315678098 0.976563884809667 -0.066598382964674 17
3.689776829868748 0.963178202172408 -0.066563478151799 14
3.704736133615209 0.953282518025335 -0.066772907029047 6
nan nan nan 0
nan nan nan 0
3.252525254678651 0.800100772270894 -0.058465561564900 5
3.272651016134033 0.793551682558240 -0.058779704880771 1
nan nan nan 0
3.250991890559342 0.763710601251882 -0.058291037500527 1
3.273120793762941 0.756863005962139 -0.058640085629273 2
3.279512184071002 0.746892885713203 -0.058709895255022 11
nan nan nan 0
3.280740874424161 0.723118700657077 -0.058640085629273 1
nan nan nan 0
4.498292363931801 0.958603546026661 -0.080281069611504 5
3.194186665608582 0.669046017380979 -0.056964654611293 1
3.270930981598927 0.673210716316513 -0.058291037500527 1
4.512004082145820 0.912238400257993 -0.080350879237253 5
4.491468286805955 0.892593692873781 -0.079932021482758 5
nan nan nan 0
3.209304796173853 0.613949342490647 -0.057034464237043 1
4.528231863960941 0.849889815806517 -0.080420688863002 3
nan nan nan 0
3.278427640097097 0.592245406232082 -0.058151418249029 1
3.288452841210987 0.581618488425615 -0.058291037500527 2
3.191946176918386 0.553066159255772 -0.056545796856799 1
3.193857291661480 0.541920818347687 -0.056545796856799 1
4.537146807161241 0.753560747470701 -0.080281069611504 5
4.547515750500556 0.739795249884839 -0.080420688863002 5
3.298011106510427 0.524714109092732 -0.058291037500527 1
3.252400007591938 0.505823394484775 -0.057453321991537 3
3.202743785254897 0.486656777276316 -0.056545796856799 1
3.204423022212075 0.475474150270091 -0.056545796856799 1
3.190230803351236 0.461992960725537 -0.056266558353802 1
3.191824023755634 0.450854162437714 -0.056266558353802 1
3.260732486783463 0.448984148302665 -0.057453321991537 2
3.319756245220915 0.445309162748350 -0.058465561564900 8
3.212233141185756 0.419476840273361 -0.056545796856799 1
3.213749024714465 0.407700599710936 -0.056545796856799 1
3.199275289409365 0.394522112163115 -0.056266558353802 1
3.152914874758249 0.378194970761195 -0.055428842844812 1
3.158188376927928 0.367649391963719 -0.055498652470562 1
3.199194012562667 0.361108841508461 -0.056196748728053 1
3.152726678837044 0.344722882893194 -0.055359033219063 2
3.221522989660361 0.340869769776675 -0.056545796856799 1
3.127206014048323 0.319855887319145 -0.054870365838819 2
3.140243557015264 0.310117105039632 -0.055079794716067 2
3.133344181063419 0.298395409006136 -0.054940175464568 2
3.102505271163662 0.284534133759822 -0.054381698458575 2
3.097503687757514 0.273175608966655 -0.054276984019952 10
3.090468118039055 0.261686753810870 -0.054137364768453 19
3.097342172129949 0.251382707417641 -0.054242079207077 14
3.092135708007799 0.241184387967028 -0.054137364768453 16
3.086976248175229 0.229943723333179 -0.054032650329830 10
nan nan nan 0
3.168312682527244 0.213771815536817 -0.055428842844812 1
1.141492847267206 0.073016822257878 -0.019965552964252 3
1.093835562077802 0.066135383632540 -0.019127837455263 3
1.102045591245431 0.062771649082700 -0.019267456706761 6
1.142194874889666 0.061059352032365 -0.019965552964252 6
1.122438776478254 0.055878312394347 -0.019616504835507 6
1.158583014495137 0.053624126489928 -0.020244791467249 6
1.102814597344311 0.047378571067089 -0.019267456706761 6
1.122954660346836 0.044317305235775 -0.019616504835507 3
1.195045025056629 0.042984912446971 -0.020873078098991 3
nan nan nan 0
nan nan nan 0
nan nan nan 0
nan nan nan 0
nan nan nan 0
nan nan nan 0
nan nan nan 0
nan nan nan 0
nan nan nan 0
nan nan nan 0
nan nan nan 0
nan nan nan 0
nan nan nan 0
nan nan nan 0
nan nan nan 0
nan nan nan 0
nan nan nan 0
nan nan nan 0
nan nan nan 0
nan nan nan 0
nan nan nan 0
nan nan nan 0
nan nan nan 0
nan nan nan 0
nan nan nan 0
nan nan nan 0
nan nan nan 0
nan nan nan 0
nan nan nan 0
nan nan nan 0
nan nan nan 0
nan nan nan 0
nan nan nan 0
nan nan nan 0
nan nan nan 0
nan nan nan 0
nan nan nan 0
nan nan nan 0
nan nan nan 0
nan nan nan 0
nan nan nan 0
nan nan nan 0
nan nan nan 0
nan nan nan 0
nan nan nan 0
nan nan nan 0
nan nan nan 0
nan nan nan 0
nan nan nan 0
nan nan nan 0
nan nan nan 0
nan nan nan 0
nan nan nan 0
nan nan nan 0
nan nan nan 0
nan nan nan 0
nan nan nan 0
nan nan nan 0
nan nan nan 0
nan nan nan 0
nan nan nan 0
nan nan nan 0
nan nan nan 0
nan nan nan 0
nan nan nan 0
nan nan nan 0
nan nan nan 0
nan nan nan 0
nan nan nan 0
nan nan nan 0
nan nan nan 0
nan nan nan 0
nan nan nan 0
nan nan nan 0
nan nan nan 0
nan nan nan 0
nan nan nan 0
nan nan nan 0
nan nan nan 0
nan nan nan 0
nan nan nan 0
nan nan nan 0
nan nan nan 0
nan nan nan 0
nan nan nan 0
nan nan nan 0
nan nan nan 0
nan nan nan 0
nan nan nan 0
nan nan nan 0
nan nan nan 0
nan nan nan 0
nan nan nan 0
nan nan nan 0
nan nan nan 0
nan nan nan 0
nan nan nan 0
nan nan nan 0
nan nan nan 0
nan nan nan 0
nan nan nan 0
nan nan nan 0
4.316111813628764 -1.444150811287788 -0.079443354102515 3
4.299679699168967 -1.455361284921259 -0.079233925225267 5
4.302140875243535 -1.472952046061239 -0.079373544476765 13
4.293453287292559 -1.485902347893496 -0.079303734851016 16
4.233504900592825 -1.481722881791236 -0.078291495277654 7
nan nan nan 0
3.925334233380744 -1.405473134650886 -0.072776534843472 28
3.916891116488304 -1.417121629812743 -0.072706725217723 69
3.864970016825239 -1.413613324221204 -0.071834104895859 11
3.837256998579321 -1.419444465038968 -0.071415247141364 11
3.779833181211742 -1.413221717463382 -0.070437912380876 9
3.735840730753236 -1.410911499628636 -0.069704911310510 8
3.702869237631986 -1.413247802516119 -0.069181339117392 10
3.671545833678164 -1.416731628802764 -0.068692671737148 10
3.629316176039481 -1.415011248027203 -0.067994575479657 10
3.602028133326749 -1.418876615177142 -0.067575717725162 10
3.556177778227622 -1.415175016002244 -0.066807811841921 9
3.532662331304374 -1.420121151771519 -0.066458763713176 9
3.498039260693964 -1.420406449878181 -0.065900286707183 9
3.471106549569897 -1.422896870470689 -0.065481428952688 11
3.438404397792319 -1.423530707110894 -0.064957856759569 11
3.407336669521571 -1.425319804168322 -0.064469189379325 12
3.367340902295460 -1.422420487182167 -0.063805997934709 12
3.342619624615335 -1.424369225076607 -0.063422044993088 10
3.310073949022601 -1.424173526688850 -0.062898472799970 12
3.271571993243889 -1.422519988238050 -0.062270186168228 11
3.244613985093820 -1.424285961774200 -0.061851328413733 11
3.223666845656747 -1.427186478027211 -0.061537185097862 11
3.200408643374444 -1.430271487273797 -0.061188136969116 12
3.176667926739738 -1.434320566851124 -0.060839088840370 12
3.135248953100379 -1.428815265558891 -0.060140992582879 12
3.107123327706445 -1.427803229088485 -0.059687230015510 11
3.082165273994607 -1.429386002838299 -0.059303277073889 11
3.055423115179821 -1.429964409482368 -0.058884419319395 11
3.041372053689421 -1.436351342546849 -0.058709895255022 11
3.009011446656130 -1.434580240244830 -0.058186323061903 11
2.984163155382576 -1.435539323064885 -0.057802370120283 11
2.963194010499738 -1.437571688618472 -0.057488226804412 11
2.940197010229297 -1.439115233502507 -0.057139178675666 11
2.920559805344956 -1.442796371844273 -0.056859940172670 11
2.888659435813409 -1.439603027757662 -0.056336367979551 11
2.851457390883255 -1.433510152614836 -0.055708081347809 10
2.835735246862062 -1.438028340916169 -0.055498652470562 10
2.814675494278630 -1.439722380133305 -0.055184509154690 11
2.795415786697847 -1.442203865871646 -0.054905270651694 11
2.769077573862357 -1.440876337768844 -0.054486412897199 12
2.739241590014859 -1.437524175453045 -0.053997745516955 12
2.723602453761461 -1.441464703299256 -0.053788316639708 12
2.704441014717499 -1.443430488963963 -0.053509078136711 13
2.685299210129724 -1.445280158394646 -0.053229839633715 12
2.655632418622342 -1.441290680574664 -0.052741172253471 11
2.630037040302692 -1.438113883543764 -0.052322314498976 11
2.614494054029740 -1.441492659917251 -0.052112885621729 11
2.591465379834771 -1.441798768984712 -0.051763837492983 11
2.586416774827427 -1.450835887348838 -0.051763837492983 12
2.556968001626619 -1.446073820932903 -0.051275170112739 13
2.532795799440708 -1.444095399324556 -0.050891217171119 13
2.514374139524119 -1.444077945994484 -0.050611978668122 13
2.509318048370539 -1.452845951825991 -0.050611978668122 14
2.480052596211495 -1.447484291344871 -0.050123311287878 13
2.457749553431613 -1.445992273607875 -0.049774263159133 14
2.430327424705923 -1.441302222624961 -0.049320500591763 13
2.423565128777831 -1.448750840075965 -0.049285595778889 14
2.409675743931195 -1.452462361558706 -0.049111071714516 13
2.392627884143298 -1.453596866374863 -0.048866738024394 13
2.365369299621531 -1.448364684813651 -0.048412975457024 13
2.344983585063662 -1.447160836993812 -0.048098832141153 13
2.331427496946544 -1.450056925495319 -0.047924308076781 13
2.317879866694756 -1.452876072381217 -0.047749784012408 14
2.309667560634294 -1.458419137078267 -0.047679974386659 14
2.284317596584109 -1.453589868150877 -0.047261116632164 14
2.263826299992378 -1.452234989648459 -0.046946973316293 14
2.246987720726179 -1.452529189502821 -0.046702639626171 14
2.238552631543125 -1.458180885547985 -0.046632830000422 14
2.216731559765234 -1.455013059555291 -0.046283781871676 15
2.198295888891634 -1.453917042637433 -0.046004543368679 14
2.176566958367297 -1.450492279020516 -0.045655495239934 14
2.168424274144424 -1.455473157625490 -0.045585685614185 14
2.158361148272005 -1.459672783500082 -0.045480971175561 13
2.141430315336443 -1.459689642077067 -0.045236637485439 12
2.137970397901178 -1.468287800520120 -0.045271542298313 3
2.101841588667605 -1.453756524037417 -0.044608350853697 1
2.057378560040483 -1.433646257682581 -0.043770635344707 4
nan nan nan 0
nan nan nan 0
nan nan nan 0
3.284800574954683 -2.357761649277991 -0.070577531632375 5
3.292754941452303 -2.380930556699381 -0.070926579761120 22
3.266644028551840 -2.379458873048242 -0.070542626819500 26
3.250257112004272 -2.384932082047683 -0.070368102755127 26
3.229047612255334 -2.386754086389291 -0.070088864252131 26
3.201449422346909 -2.383680281906377 -0.069670006497636 24
3.185110550227615 -2.388841803207174 -0.069495482433263 24
3.168774750078450 -2.393918375382937 -0.069320958368890 22
3.161990449180946 -2.406175838032373 -0.069355863181765 24
3.134526837802493 -2.402600506197113 -0.068937005427270 22
3.116624023574646 -2.406195174107651 -0.068727576550022 24
3.102312516594913 -2.411607916202829 -0.068587957298524 24
3.087577568196843 -2.417491175865234 -0.068448338047026 22
3.069699067317031 -2.420824464389822 -0.068238909169779 24
3.059664264712946 -2.430281218507083 -0.068204004356904 24
3.033985908257276 -2.427205378438813 -0.067820051415284 24
3.022380645236328 -2.435271882159834 -0.067750241789535 22
3.001439654616751 -2.435726516546878 -0.067471003286538 22
2.965049182619108 -2.423409869559825 -0.066842716654796 13
nan nan nan 0
2.512392389164358 -2.082867137143900 -0.056964654611293 40
2.489756602290101 -2.078808008079502 -0.056615606482548 34
2.479424022413859 -2.084912249936413 -0.056545796856799 27
2.467553194249822 -2.089677400404898 -0.056441082418175 23
2.463286798888213 -2.100873310198277 -0.056510892043924 10
2.476400797608049 -2.125532902058031 -0.056964654611293 9
2.479556144717221 -2.143318095116215 -0.057208988301415 9
2.485256230959472 -2.164210839037191 -0.057523131617286 10
2.492721090272601 -2.186057724974714 -0.057872179746032 10
2.491070494455250 -2.200040550269823 -0.058011798997530 10
2.490846789500249 -2.215367378798568 -0.058186323061903 8
2.500973273668024 -2.240058507534954 -0.058605180816398 8
2.510957513972932 -2.264847130800147 -0.059024038570893 8
2.517838532291704 -2.287043498030354 -0.059373086699639 8
2.512790938090726 -2.298517836242647 -0.059442896325388 8
2.520930974971533 -2.322178237675967 -0.059826849267008 8
2.523072051853139 -2.340483470169299 -0.060071182957130 9
2.529499807884293 -2.362927023331203 -0.060420231085876 9
2.534344923385987 -2.384073645060845 -0.060734374401747 9
2.536169612437528 -2.402532267027423 -0.060978708091869 9
2.542236950086455 -2.425173436258131 -0.061327756220614 9
2.548176949000376 -2.447886069323568 -0.061676804349360 9
2.552551937073044 -2.469279192588846 -0.061990947665231 15
2.553943693005312 -2.487941796488216 -0.062235281355353 16
2.539533571060672 -2.491240126965628 -0.062095662103855 13
2.520863782969903 -2.490252236397777 -0.061851328413733 12
2.512155822511827 -2.499036521660575 -0.061851328413733 12
2.497766197482406 -2.502129430638343 -0.061711709162235 12
2.481977843601806 -2.503732245812232 -0.061537185097862 12
2.462436738665185 -2.500550493801505 -0.061257946594865 12
2.449498839210463 -2.504841655455179 -0.061153232156241 12
2.442133503614987 -2.514811317458119 -0.061188136969116 12
2.430564094481755 -2.520441773316503 -0.061118327343367 12
2.424959283527890 -2.531376006271323 -0.061188136969116 12
2.398190840831013 -2.520990286915098 -0.060734374401747 12
2.379324183934187 -2.519585954620445 -0.060490040711625 11
2.370514691998758 -2.527875995770508 -0.060490040711625 11
2.360313548452220 -2.534671799175655 -0.060455135898750 12
2.347378559944504 -2.538490835701885 -0.060350421460126 11
2.329035647698705 -2.536358848814903 -0.060106087770004 12
2.310736336925979 -2.534129860841467 -0.059861754079882 12
2.300534293106365 -2.540698076188586 -0.059826849267008 11
2.284966488153012 -2.541277975372945 -0.059652325202635 11
2.282740956100024 -2.556696789893227 -0.059826849267008 11
2.257883240800054 -2.546693927714654 -0.059407991512513 11
2.240618146547633 -2.543271511843462 -0.059163657822391 10
2.229093515648781 -2.548067113636898 -0.059093848196642 11
2.219293232056199 -2.556607413596164 -0.059093848196642 11
2.209049901028034 -2.562823945567549 -0.059058943383767 11
2.191435239191605 -2.559502380173893 -0.058814609693645 11
2.177306578247323 -2.561042231166357 -0.058674990442147 10
2.160614094487600 -2.559458636667612 -0.058465561564900 11
2.151666753374863 -2.566984994216401 -0.058465561564900 11
2.141413975063920 -2.572943070833956 -0.058430656752025 11
2.127324293935292 -2.574236489404155 -0.058291037500527 11
2.109895023846794 -2.570457073853458 -0.058046703810405 11
2.103436250172021 -2.580906509800053 -0.058116513436154 11
2.095672296898330 -2.589787643141519 -0.058151418249029 11
2.082862065406464 -2.592410499258840 -0.058046703810405 11
2.062576962511081 -2.585596106350972 -0.057732560494534 11
2.049814304160522 -2.588077346181499 -0.057627846055910 11
2.042003819933307 -2.596788671906135 -0.057662750868785 11
2.034157480582323 -2.605476986027667 -0.057697655681659 11
2.022600124296284 -2.609400653130066 -0.057627846055910 11
2.007381537046039 -2.608521129015217 -0.057453321991537 12
1.987337760778100 -2.601211206120287 -0.057139178675666 11
1.978245731658436 -2.608132462018647 -0.057139178675666 11
1.969585975673364 -2.614678220869840 -0.057139178675666 11
1.949668778844640 -2.607124578564440 -0.056825035359795 10
1.684278934375687 -2.268710638102550 -0.049320500591763 3
1.662112882262247 -2.255259052957265 -0.048901642837268 19
1.655016248607264 -2.262949940045079 -0.048936547650143 23
1.641232862903531 -2.260622249466129 -0.048762023585770 18
1.630218983091782 -2.261186089961142 -0.048657309147146 17
1.618824684355424 -2.261984369280352 -0.048552594708523 17
1.608602820216736 -2.264360922278377 -0.048482785082774 16
1.601841329233929 -2.271596440771395 -0.048517689895648 14
1.594299636510877 -2.276895848032685 -0.048517689895648 10
1.588624580358630 -2.285731217263007 -0.048587499521397 8
1.591588558335376 -2.308000666221742 -0.048936547650143 2
1.626442445006794 -2.376248852896917 -0.050262930539377 1
1.634709203760201 -2.404498719993482 -0.050751597919620 1
1.644202054475880 -2.436712309705112 -0.051310074925614 1
1.644588018443091 -2.455728973712977 -0.051589313428610 1
1.638219715659159 -2.464785487264740 -0.051659123054359 1
