# This PCD file was generated using the MATLABÂ® pcwrite function
# from Computer Vision ToolboxÂ®.
# .PCD v.7 - Point Cloud Data file format
VERSION .7
FIELDS x y z intensity
SIZE 8 8 8 1
TYPE F F F U
COUNT 1 1 1 1
WIDTH 862
HEIGHT 1
VIEWPOINT 0 0 0 1 0 0 0
POINTS 862
DATA ascii
-3.328170728636079 -0.987112899671700 -0.060594755150248 52
-3.331596119321293 -0.975489401978096 -0.060594755150248 52
-3.323286790364108 -0.961102763164444 -0.060385326273001 52
-3.318929808267987 -0.947301104494079 -0.060245707021503 52
-3.330079152751224 -0.937297417462884 -0.060385326273001 52
-3.333330643326193 -0.925667561618907 -0.060385326273001 50
-3.334612881603417 -0.913498087832778 -0.060350421460126 53
-3.320407046476095 -0.897158119295859 -0.060036278144255 50
-3.319653927302522 -0.884532546375973 -0.059966468518506 50
-3.334325679334218 -0.875988085252889 -0.060175897395754 50
-3.331405013399678 -0.863421154288931 -0.060071182957130 49
-3.334398619614449 -0.851787120407084 -0.060071182957130 55
-3.317959664653057 -0.835260995346316 -0.059722134828384 45
-3.322795940962362 -0.824155465271791 -0.059757039641259 47
-3.329395611483311 -0.814082066098039 -0.059826849267008 47
-3.328328769837825 -0.801518992964699 -0.059757039641259 46
-3.329298307894935 -0.788853626257409 -0.059722134828384 45
-3.318399713989522 -0.774047627324068 -0.059477801138262 46
-3.328743956026186 -0.764830333083885 -0.059617420389760 46
-3.321641109569484 -0.751001252525228 -0.059442896325388 45
-3.334002316523093 -0.741572866685888 -0.059617420389760 46
-3.332663585708659 -0.729075789300265 -0.059547610764011 46
-3.323458378317408 -0.714914951418840 -0.059338181886764 47
-3.323977218000019 -0.702895849713992 -0.059303277073889 48
-3.330205413716072 -0.692683722222433 -0.059373086699639 48
-3.336521446898131 -0.681855685952132 -0.059442896325388 48
-3.334960064328245 -0.669417811169907 -0.059373086699639 48
-3.321580853187821 -0.654678969298222 -0.059093848196642 50
-3.323845873051284 -0.643080499863944 -0.059093848196642 50
-3.333928799027897 -0.632966159716676 -0.059233467448140 48
-3.336009459381610 -0.621906973148311 -0.059233467448140 48
-3.330291616243176 -0.608819897741301 -0.059093848196642 50
-3.328563884403389 -0.595904883614998 -0.059024038570893 50
-3.328654084077238 -0.583936872148349 -0.058989133758018 52
-3.332642936754820 -0.572652790937920 -0.059024038570893 51
-3.334621564428706 -0.561016207357533 -0.059024038570893 48
-3.332613304657770 -0.548723027134364 -0.058954228945144 51
-3.324637151598185 -0.535496738092058 -0.058779704880771 52
-3.330436825333064 -0.524510521446205 -0.058849514506520 52
-3.334223840522648 -0.513186132365077 -0.058884419319395 51
-3.339949824735385 -0.502138991853406 -0.058954228945144 50
-3.335746776316094 -0.489606146753834 -0.058849514506520 52
-3.329434229334216 -0.477406389501460 -0.058709895255022 52
-3.339002117780120 -0.466889271778888 -0.058849514506520 53
-3.344494690866915 -0.456354879459851 -0.058919324132269 52
-3.346067290866571 -0.444677634063874 -0.058919324132269 50
-3.347599120092242 -0.432994970411258 -0.058919324132269 53
-3.333217694666375 -0.419310315065546 -0.058640085629273 51
-3.334661053708221 -0.407672659420479 -0.058640085629273 52
-3.340035285458624 -0.396501500741771 -0.058709895255022 53
-3.341398985345375 -0.384840186222859 -0.058709895255022 52
-3.346696670473550 -0.373617909280839 -0.058779704880771 55
-3.335988784643715 -0.361226177761549 -0.058570276003523 53
-3.339218189019141 -0.349787533947692 -0.058605180816398 56
-3.348317740554735 -0.339519302472514 -0.058744800067896 56
-3.353462856333734 -0.328219001394778 -0.058814609693645 56
-3.354643314549731 -0.315925741011045 -0.058814609693645 60
-3.343776492047379 -0.303130671514445 -0.058605180816398 57
-3.334802742691832 -0.291170956117815 -0.058430656752025 55
-3.361704049810557 -0.281699319574468 -0.058884419319395 27
-3.243069957978041 -0.260361534664342 -0.056790130546921 10
nan nan nan 0
-3.161045849169617 -0.231578021978837 -0.055324128406189 45
-3.175798888985222 -0.221516506699803 -0.055568462096311 75
-3.164580845259412 -0.209636474064694 -0.055359033219063 56
-3.169284876069905 -0.198839175454574 -0.055428842844812 64
-3.173886216660589 -0.189119494674358 -0.055498652470562 66
-3.162547683206482 -0.177367565241691 -0.055289223593314 64
-3.163147544226367 -0.166327133111690 -0.055289223593314 64
-3.171698027087845 -0.155676807354067 -0.055428842844812 64
-3.170249670584709 -0.143960195147327 -0.055393938031938 61
-3.180722577786278 -0.133311774351956 -0.055568462096311 64
-3.165161502713575 -0.122146483757797 -0.055289223593314 66
-3.163570125243840 -0.111027126959068 -0.055254318780440 61
-3.173914343152848 -0.100853288045117 -0.055428842844812 64
-3.174247050253170 -0.089773645018648 -0.055428842844812 66
-3.180552036016918 -0.078286462457365 -0.055533557283436 61
-3.174808181303125 -0.067057104855711 -0.055428842844812 66
-3.175003180027065 -0.057082836289985 -0.055428842844812 66
-3.187180006554474 -0.046173461416820 -0.055638271722060 64
-3.187321764621630 -0.035047845711840 -0.055638271722060 64
-3.187424686178943 -0.023921802959921 -0.055638271722060 66
-3.175488421111254 -0.013301532589925 -0.055428842844812 66
-3.183514285574667 -0.002222512603781 -0.055568462096311 66
-3.187504936633516 0.007788559350036 -0.055638271722060 64
-3.191457650480940 0.018938713240918 -0.055708081347809 68
-3.193371705160668 0.030097710430106 -0.055742986160684 58
-3.175251431946090 0.041012038539822 -0.055428842844812 15
-2.979145153313047 0.048880523949459 -0.052008171183105 4
-2.886988597659317 0.057449281628810 -0.050402549790875 7
-2.820810045592075 0.065490885825502 -0.049250690966014 4
-2.786581552538452 0.074429277296959 -0.048657309147146 8
-2.754338703948537 0.082709166830246 -0.048098832141153 24
-2.758030360153841 0.092457095022528 -0.048168641766902 31
-2.763685801846865 0.102305775744606 -0.048273356205526 26
-2.779296301055893 0.112599806767606 -0.048552594708523 28
-2.774912071388031 0.121640517984774 -0.048482785082774 27
-2.770475643013400 0.131136933305944 -0.048412975457024 28
-2.771998127812648 0.140908418132236 -0.048447880269899 31
-2.787463379859122 0.151451556084624 -0.048727118772896 26
-2.788885898530127 0.161782910208810 -0.048762023585770 28
-2.792296025578940 0.171762503478669 -0.048831833211519 25
-2.789715582891590 0.180891753130699 -0.048796928398645 24
-2.789067156935523 0.190628575723730 -0.048796928398645 25
-2.808330274594753 0.201796287839309 -0.049145976527390 24
-2.805614724472049 0.211447677832316 -0.049111071714516 25
-2.812910831349706 0.220886903900792 -0.049250690966014 22
-2.812122654950611 0.230704449356532 -0.049250690966014 21
-2.821220127869136 0.241863883672732 -0.049425215030387 17
-2.834301128612283 0.252954636796873 -0.049669548720509 17
-2.837383176796922 0.263216079032255 -0.049739358346258 16
-2.852371008424123 0.274652089507410 -0.050018596849255 13
-2.849454703300331 0.283911120546611 -0.049983692036380 6
-5.999241666910882 0.618903090342239 -0.105272915629694 4
-6.012952023013622 0.641537771058212 -0.105552154132691 2
nan nan nan 0
-3.564392861175335 0.406111268864054 -0.062619234296973 1
-3.505358428478251 0.411784975560807 -0.061606994723611 6
-3.510003359769804 0.423513965952676 -0.061711709162235 4
-3.508503636003560 0.435763583955881 -0.061711709162235 4
-3.524655945019413 0.451518839987516 -0.062025852478106 5
nan nan nan 0
nan nan nan 0
-3.355334949841826 0.465591199377189 -0.059128753009517 1
-3.209327086159747 0.455611982107537 -0.056580701669673 4
-3.178034389189739 0.462492183028267 -0.056057129476555 2
-3.093170443992869 0.462277420198262 -0.054591127335823 2
-3.024330603269646 0.462787614424441 -0.053404363698088 3
-2.983347257814423 0.466112849708782 -0.052706267440596 3
-2.948133213795973 0.471158997436330 -0.052112885621729 7
-2.934545724510212 0.480024397230817 -0.051903456744481 13
nan nan nan 0
-2.933094201892740 0.500836110341428 -0.051938361557356 2
-2.958907787956357 0.515879936620912 -0.052427028937600 2
-2.882365306432558 0.512389465394624 -0.051100646048366 3
-2.915975884208444 0.528871213282174 -0.051728932680108 2
-2.965141009111080 0.549021128369784 -0.052636457814847 1
-2.971066467277769 0.560851792104728 -0.052776077066345 1
-2.973117780151065 0.571456015463424 -0.052845886692094 1
-2.959330389056613 0.579524849954461 -0.052636457814847 2
-2.972874438810900 0.593499368279341 -0.052915696317844 1
-2.943349941097787 0.598296357064315 -0.052427028937600 2
-2.933622378319458 0.605922246011487 -0.052287409686101 2
-2.939317184511599 0.617804091497931 -0.052427028937600 1
-2.964408884132385 0.634431948092297 -0.052915696317844 1
-2.969992011613156 0.646477056394021 -0.053055315569342 1
-2.967831886415399 0.656322350271460 -0.053055315569342 1
-2.957718805424932 0.664923602467918 -0.052915696317844 1
-2.959278687377522 0.676134739969092 -0.052985505943593 1
-2.960796292347304 0.687364858508417 -0.053055315569342 1
-2.958257087103741 0.698212102509208 -0.053055315569342 2
-2.963580275244749 0.710398656452603 -0.053194934820840 3
-2.949549913582715 0.717386815772423 -0.052985505943593 15
-2.989738344388518 0.738224358044341 -0.053753411826833 4
-3.002660873231087 0.752545116963403 -0.054032650329830 3
-2.992263728744084 0.761050142135025 -0.053893031078331 2
-2.962614650815264 0.763978013239096 -0.053404363698088 2
-2.925107116847863 0.765205227801972 -0.052776077066345 2
-2.895358803314584 0.768231362843942 -0.052287409686101 2
-2.873349392139626 0.773137553925291 -0.051938361557356 3
-2.849547688564893 0.776875867527598 -0.051554408615735 9
-2.829471628394467 0.782023490262767 -0.051240265299864 22
-2.826586364004248 0.792388769504746 -0.051240265299864 23
-2.843038907049647 0.807715491829835 -0.051589313428610 12
-2.851875287037352 0.820456115512067 -0.051798742305857 14
-2.854753407941282 0.832084737887682 -0.051903456744481 14
-2.855667182635931 0.843177159082822 -0.051973266370230 15
-2.848874839469304 0.851994237196898 -0.051903456744481 16
-2.857366521930558 0.865411351036400 -0.052112885621729 16
-2.861975493626528 0.877725440907157 -0.052252504873227 15
-2.870663654240658 0.890266212842448 -0.052461933750474 16
-2.867538556159523 0.900281275183327 -0.052461933750474 15
-2.864219599631826 0.910785282375635 -0.052461933750474 15
-2.861022915890973 0.920777725758981 -0.052461933750474 15
-2.865396937347691 0.933236019482882 -0.052601553001973 13
-2.839331259928049 0.935721626720313 -0.052182695247478 18
-2.830356618143721 0.943729462316884 -0.052077980808854 25
-2.834624353560903 0.956160078879772 -0.052217600060352 28
-2.837284860013825 0.966995862732515 -0.052322314498976 28
-2.843344737662062 0.980152429344699 -0.052496838563349 24
-2.852950044582092 0.995177578057489 -0.052741172253471 22
-2.851344655370124 1.005795377789001 -0.052776077066345 25
-2.842165973572901 1.013726938688789 -0.052671362627722 26
-2.842372330766239 1.024998488800752 -0.052741172253471 14
-2.833321104514582 1.032364723351674 -0.052636457814847 16
-2.850341266902637 1.049851179089250 -0.053020410756467 15
-2.848718319579988 1.059994843939916 -0.053055315569342 25
-2.846872602823965 1.070636171530774 -0.053090220382216 28
-2.856202739448201 1.085540112805834 -0.053334554072338 36
-2.869196858700270 1.101956080473740 -0.053648697388210 20
-2.993762379810975 1.162406302229724 -0.056057129476555 5
-2.993409732014974 1.174309985900252 -0.056126939102304 5
-2.955830160096808 1.171489634711307 -0.055498652470562 6
-2.935015024800314 1.175110834834642 -0.055184509154690 9
-2.918124397571492 1.179591275577240 -0.054940175464568 14
-2.904732441198352 1.185990796117987 -0.054765651400196 19
-2.908387986733776 1.198157222520200 -0.054905270651694 22
-2.902341645323158 1.207533940216829 -0.054870365838819 6
-2.986381701463797 1.255359273682252 -0.056545796856799 1
-2.985662944403629 1.267338729589557 -0.056615606482548 1
-2.981443881539821 1.277232576444627 -0.056615606482548 1
-2.925577032131585 1.265404050801139 -0.055638271722060 2
-2.849671269093896 1.244398516194263 -0.054276984019952 8
-2.956926814605253 1.303543691709792 -0.056406177605300 1
-2.866491718624040 1.275644915517838 -0.054765651400196 7
-2.958699011156665 1.329071418127404 -0.056615606482548 1
-2.961560896237270 1.342177299104026 -0.056755225734046 2
-2.916851094471816 1.334207297497093 -0.055987319850806 6
nan nan nan 0
-2.902027661257534 1.352004655209617 -0.055882605412182 45
-2.908148657630955 1.367231168752580 -0.056092034289429 31
-2.923232054684523 1.386802371403792 -0.056475987231049 20
-2.898290582774750 1.388006261328989 -0.056092034289429 28
-2.909632515912891 1.405944865729228 -0.056406177605300 75
-2.930370081453234 1.427338138752636 -0.056894844985544 28
-2.911012245116131 1.430502842320336 -0.056615606482548 25
-2.923917283286391 1.449537425741106 -0.056964654611293 75
-2.911685621189843 1.456157188875115 -0.056825035359795 31
-2.906328981061884 1.466819269438518 -0.056825035359795 21
-2.922575821082285 1.487841962953839 -0.057243893114290 75
-2.910770414988116 1.493364889481642 -0.057104273862792 36
-2.919747884215028 1.510868434090286 -0.057383512365788 30
-2.928638449595120 1.528452759726430 -0.057662750868785 53
-6.154471134098894 3.239395523413280 -0.121398939177744 15
-6.157256288043367 3.268359439294692 -0.121678177680741 6
-3.695243233451138 1.978051816475148 -0.073160487785092 3
-6.172420546767392 3.333239797923871 -0.122446083563981 13
-6.148454367714781 3.348071029780700 -0.122201749873859 20
-6.158354180441987 3.379987274357340 -0.122620607628354 18
-6.186760240229920 3.423733107255782 -0.123423418324469 6
-3.702068879483239 2.065625880325615 -0.073998203294082 3
-3.712264416750402 2.088340342553068 -0.074347251422828 3
nan nan nan 0
nan nan nan 0
nan nan nan 0
-3.714619638554732 2.156755806658915 -0.074975538054570 3
-3.707068525111910 2.169709109262816 -0.074975538054570 5
-3.520354405528475 2.076959000082083 -0.071345437515615 1
-3.375584661565174 2.007464239183560 -0.068553052485650 3
-3.282799184019279 1.967828812086879 -0.066807811841921 1
-3.257426523527421 1.967332283776398 -0.066423858900301 11
-3.241998840982975 1.973491966210869 -0.066249334835928 13
-3.211227690938337 1.970156402818472 -0.065760667455684 13
-3.183921246226246 1.968733589324388 -0.065341809701189 13
-3.175332554756151 1.978777949866958 -0.065306904888315 13
-3.158245410445473 1.983468740872187 -0.065097476011067 13
-3.129336387222701 1.980578442252713 -0.064643713443698 12
-3.103858218288776 1.979661295257712 -0.064259760502078 13
-3.082134866547856 1.980215044497114 -0.063945617186207 12
-3.061775010912829 1.982267483155367 -0.063666378683210 12
-3.049812549853475 1.989665129009076 -0.063561664244587 12
-3.024467997218871 1.988215760573634 -0.063177711302966 13
-2.999170948031259 1.986613844811351 -0.062793758361346 19
-2.998871169331164 2.001511203999761 -0.062933377612844 7
-3.006800762136470 2.022010120625492 -0.063247520928715 4
-3.009657173145690 2.039223606094736 -0.063456949805963 4
-3.015733030480360 2.058736502607751 -0.063736188308959 18
-3.008528326116325 2.069250832851240 -0.063736188308959 21
-3.006581417981751 2.082632112540095 -0.063840902747583 6
-3.012412191842998 2.102269581647812 -0.064120141250580 6
-3.011598946944591 2.117372538298928 -0.064259760502078 6
-3.007453239550333 2.130183728772093 -0.064329570127827 6
-3.014649211434210 2.151122340154393 -0.064643713443698 13
-3.026606618885670 2.175638581278274 -0.065062571198193 19
-3.022233047586256 2.188535852812492 -0.065132380823942 6
-3.027499443213515 2.208500043332326 -0.065411619326939 8
-3.019771894849089 2.219054533610333 -0.065411619326939 11
-3.023258380151374 2.237910199869046 -0.065655953017061 11
-3.001000310910275 2.237691574328645 -0.065341809701189 4
-3.005962355701841 2.257760880637280 -0.065621048204186 3
-3.033947547549414 2.293724217401490 -0.066388954087426 3
-3.008422394628990 2.290974036369360 -0.066005001145806 8
-2.990486557930255 2.294681043088191 -0.065795572268559 6
-2.985622819335393 2.307551544848283 -0.065865381894308 6
-2.992157566277034 2.328492509975940 -0.066179525210179 8
-2.993454455345537 2.346324557802508 -0.066388954087426 11
-2.989542580557571 2.360998464861663 -0.066493668526050 14
-2.989107834226805 2.377643730137185 -0.066668192590423 14
-2.992132737330423 2.396293053034689 -0.066912526280545 21
-3.000871036677197 2.420533041525405 -0.067296479222165 22
-3.014132588440320 2.448645730440023 -0.067785146602409 28
-3.008662188098019 2.461684696061727 -0.067854956228158 29
-3.000482404826132 2.471648244237854 -0.067854956228158 31
-3.017999641359750 2.503812490936776 -0.068448338047026 26
-3.118193961394324 2.605365970340320 -0.070926579761120 7
-3.122851073765347 2.627822279085495 -0.071240723076991 9
-3.116710348182458 2.641292754212988 -0.071310532702740 15
-3.112034628454163 2.656050514161563 -0.071415247141364 26
-3.110909437005852 2.675804249292755 -0.071624676018612 28
-3.106084614485466 2.690574894367618 -0.071729390457235 28
-3.104680901558020 2.707431684563315 -0.071903914521608 24
-3.111739113796385 2.732767489540101 -0.072287867463228 26
-3.100141776074056 2.739881296764986 -0.072218057837479 11
-3.114458842393766 2.771957736873248 -0.072776534843472 7
-3.110720311487542 2.788151068032514 -0.072916154094971 15
-3.112844315864917 2.809711497590083 -0.073195392597967 13
-3.108936593369069 2.825940415940819 -0.073335011849465 24
-3.106428466042837 2.843526425670856 -0.073509535913838 30
-3.113157981281158 2.868718030042373 -0.073893488855458 28
-3.125112509531911 2.899970672919306 -0.074417061048577 20
-3.151497075236112 2.944994677186596 -0.075289681370441 24
-3.165954700889646 2.979274507767916 -0.075883063189309 16
-3.142472408340439 2.977928222971166 -0.075568919873438 20
-3.084317972580477 2.943321379843178 -0.074417061048577 13
-3.070214331874249 2.949377159926359 -0.074312346609953 18
-3.065649370369822 2.965637678936941 -0.074451965861451 20
-3.078196857133155 2.998646618425785 -0.075010442867445 20
-3.064855861195764 3.006572542212030 -0.074940633241695 28
-3.065723167212270 3.028495242346053 -0.075219871744692 24
-3.104752399154007 3.088538364806241 -0.076441540195302 9
-3.438666812597387 3.444673661862967 -0.084958314536696 26
-3.152097783224304 3.179725750637314 -0.078151876026156 7
-3.157529653269493 3.205282922347446 -0.078535828967776 20
-3.540660901506594 3.619392978848947 -0.088378986198404 28
-3.590706807206657 3.696275108220433 -0.089949702777759 54
-3.588889337652212 3.720299996000541 -0.090228941280756 44
-3.598014316289812 3.755909293959904 -0.090787418286749 54
-3.602799343639234 3.787280810342568 -0.091241180854118 36
nan nan nan 0
nan nan nan 0
nan nan nan 0
-6.422901126090398 6.943391332201995 -0.165099764896702 4
-6.379403537794214 6.939979875083064 -0.164541287890709 6
-6.351095196836257 6.957775105163631 -0.164436573452085 8
-6.332141248254818 6.985828647264769 -0.164576192703584 10
-6.323771154049765 7.025724946546973 -0.164995050458078 8
-6.323195101476887 7.074593459618010 -0.165623337089821 8
-6.299789027912221 7.098118028793726 -0.165658241902695 6
-3.998213261967496 4.536678680993970 -0.105552154132691 4
-3.984986770935129 4.553617071762166 -0.105621963758440 4
-6.413991937023543 7.381055088625449 -0.170684534956633 2
nan nan nan 0
nan nan nan 0
nan nan nan 0
nan nan nan 0
nan nan nan 0
-11.010770020879985 13.215536643056945 -0.300251200347026 2
-10.893191494232386 13.167606549775106 -0.298296530826050 2
-10.824075495789986 13.172757070301611 -0.297598434568558 2
nan nan nan 0
nan nan nan 0
-10.640223004830000 13.224312960561702 -0.296272051679325 2
-10.569034422224092 13.230126356868954 -0.295573955421834 2
-10.512847046237113 13.254404853201956 -0.295294716918837 2
-10.419831046084411 13.241243351093290 -0.294107953281102 2
-10.363697916751486 13.264928427122888 -0.293828714778105 2
-10.314749233124335 13.292903331211345 -0.293689095526607 2
nan nan nan 0
nan nan nan 0
-7.579165541055581 9.977947588610274 -0.218713557472037 1
-7.523284020072840 9.980110516130747 -0.218155080466044 1
-7.471627080293620 9.983896739531984 -0.217666413085800 1
-7.448020831664643 10.021458445957007 -0.217945651588796 1
-7.372628599280215 9.992685480969051 -0.216758887951061 1
-7.268538551639100 9.920295682750375 -0.214664599178587 1
-7.280915509847518 10.010294055259049 -0.216060791693570 1
-7.187399393882735 9.954584812908688 -0.214315551049842 1
-7.152607620220888 9.979612872037487 -0.214315551049842 1
-7.078314561457560 9.949119714277948 -0.213128787412106 1
-7.025085817624396 9.947632035723197 -0.212570310406113 1
-7.000054236183058 9.989689987044480 -0.212919358534859 1
-4.215623083305472 6.060971119498237 -0.128868569132901 2
nan nan nan 0
-6.942534729172531 10.131727713048813 -0.214385360675591 1
-6.943112432615693 10.208812492176634 -0.215502314687577 4
-6.961136843464625 10.312543026495920 -0.217177745705556 4
-6.971843014780709 10.406554852052681 -0.218643747846288 3
-8.955000138230996 13.468156871552313 -0.282310126529498 2
nan nan nan 0
nan nan nan 0
-8.818206711093334 13.558115923419724 -0.282310126529498 2
nan nan nan 0
-1.145423603392614 1.788297141027780 -0.037068911272790 2
-4.264931289322315 6.710097226019005 -0.138781535989278 7
-4.231777098160207 6.712151347003269 -0.138502297486282 21
-4.212563795740379 6.733663244159207 -0.138641916737780 57
-4.176496816586739 6.725511309565082 -0.138188154170411 45
-4.138308942377366 6.716214554998764 -0.137699486790167 47
-4.107538403204432 6.718676234727123 -0.137455153100045 52
-4.081986641763520 6.729553798273897 -0.137385343474296 42
-4.051539592930366 6.726927561153367 -0.137071200158425 45
-4.023930638664573 6.734162751030515 -0.136931580906926 45
-3.988162752684013 6.727526004001872 -0.136512723152432 47
-3.958572693267564 6.731064079630065 -0.136303294275184 49
-3.952183609488194 6.774204013533050 -0.136896676094052 42
-3.956559645358224 6.836419130645348 -0.137874010854540 40
-3.962540379348654 6.902215199097895 -0.138921155240777 40
-3.969099170074202 6.969873376243132 -0.140003204439888 40
-3.972283081632932 7.032437387345837 -0.140980539200376 42
-3.985829621125786 7.114298070482453 -0.142341826902484 40
-3.994278894321055 7.185153420528872 -0.143493685727345 40
-4.119791815048163 7.472234513425922 -0.148938836535777 52
-4.079293017230213 7.460251831465673 -0.148415264342659 59
-4.047507514842018 7.463898575652767 -0.148205835465412 54
-4.019534767948902 7.474459175559018 -0.148136025839662 57
-3.984950939224682 7.472564131743499 -0.147821882523791 52
-3.955103378465690 7.479357673942601 -0.147682263272293 47
-3.922471144877908 7.480720966225163 -0.147437929582171 45
-3.893028926316920 7.484816849346084 -0.147263405517798 49
-3.864128704924704 7.493028604737660 -0.147158691079175 52
-3.833397964404527 7.497568919399554 -0.146984167014802 52
-3.799970338071311 7.496635184783141 -0.146704928511805 47
-3.767493904776614 7.497346395334521 -0.146460594821683 59
-3.737733789233955 7.503292097001621 -0.146320975570185 59
-3.702665824567074 7.498363420639338 -0.145971927441439 42
-3.557788240674804 7.268770495050677 -0.141259777703373 21
-3.526283923508582 7.268551185439549 -0.141015444013251 33
-3.496557676473238 7.271805020100857 -0.140840919948878 33
-3.471563700748440 7.281554994487600 -0.140806015136003 28
-3.497381380555985 7.402110981475702 -0.142900303908477 9
-3.754738373953566 8.019151289863016 -0.154558511408583 11
-3.757863628324576 8.099325387443871 -0.155849989484942 11
-3.770498011121640 8.201420821541481 -0.157560325315796 13
-3.781635981883619 8.301882272980503 -0.159235756333775 13
-3.800343910960441 8.420747074629347 -0.161260235480500 12
-3.811737762081817 8.525238087459670 -0.163005476124228 12
-3.824067619852796 8.633566877766841 -0.164820526393706 12
-3.852559657283650 8.780539382421672 -0.167368577733549 40
-3.845001025271234 8.847119249565150 -0.168380817306911 19
-3.880509987238653 9.014773993622940 -0.171312821588375 10
-3.899262680995239 9.137274020115306 -0.173407110360849 10
-3.914050938636729 9.261346581823791 -0.175501399133323 10
-3.924931884327847 9.378253731216939 -0.177456068654299 12
-3.921263521367907 9.462096238731112 -0.178782451543532 10
-3.925255499994934 9.570761850987834 -0.180562597000135 9
-3.943734433401188 9.712246718515757 -0.182971029088480 9
-3.959781089682250 9.850264872318759 -0.185309651551076 9
-3.971954120148415 9.981079950177000 -0.187508654762174 11
-4.025353259671599 10.213726551348813 -0.191627422681373 1
-4.269462211057381 10.944959591337694 -0.205065775638081 30
-4.236272628261119 10.972854595685359 -0.205310109328203 40
-4.191521168674890 10.970763097727932 -0.204995966012332 35
-4.141387369968204 10.959863658671766 -0.204507298632088 40
-4.100303843284492 10.966760790879459 -0.204367679380590 40
-4.099857162959203 11.071475380227273 -0.206078015211444 8
-4.128596801351383 11.269730021259141 -0.209498686873151 6
-4.137704283090550 11.430281895710186 -0.212186357464493 6
-4.148336532681802 11.585854614976064 -0.214804218430085 11
-4.184080443950193 11.802384177448401 -0.218573938220539 4
-4.202399761852710 11.986754962694217 -0.221715371379250 4
-4.262891934834718 12.289682583862309 -0.227055807749058 33
-4.253052025928500 12.400956679678627 -0.228835953205661 7
-4.273034205250770 12.609640227479783 -0.232396244118867 5
-4.301402215399171 12.840638677847924 -0.236375392786568 5
-4.328208738693695 13.071986184535916 -0.240354541454269 5
-4.352207849780005 13.299873608008395 -0.244263880496220 5
-4.421429468546992 13.672689266554485 -0.250825985316639 5
-4.411411523773936 13.806138503776374 -0.252990083714862 5
-4.369218374188969 13.832132330391893 -0.253199512592109 5
-4.314952015578578 13.828210287158457 -0.252850464463364 5
-3.187034380617178 10.340349317194155 -0.188869942464282 35
-3.150920409135128 10.351411146318615 -0.188869942464282 50
-3.117728509010686 10.365632962544167 -0.188939752090031 15
-3.071848899204052 10.343864557565732 -0.188346370271164 11
-3.027731326554113 10.333944703929593 -0.187962417329543 35
-2.994973986254057 10.355976350782026 -0.188171846206791 50
-2.955124088813174 10.346623034412641 -0.187822798078045 45
-2.918447168549110 10.354950595320613 -0.187787893265171 56
-2.876926460465801 10.345808852883648 -0.187438845136425 60
-2.840795320931332 10.355788170096403 -0.187438845136425 58
-2.804348213064843 10.357430863870778 -0.187299225884927 60
-2.766629326954634 10.361360739889280 -0.187194511446303 60
-2.723546570257285 10.352092486665555 -0.186845463317557 60
-2.686390360788362 10.357665069148132 -0.186775653691808 63
-2.650045880610050 10.358767292555140 -0.186636034440310 60
-2.614359738032491 10.369893592539560 -0.186670939253184 52
-2.577181973338059 10.375074799476057 -0.186601129627435 60
-2.535246910132976 10.360698975759378 -0.186182271872941 54
nan nan nan 0
-2.461930936570566 10.374254393205955 -0.186112462247191 3
-2.463917408211235 10.546354687530121 -0.189044466528655 3
-2.469213258579247 10.738081615373455 -0.192325518938864 3
-2.771025305457616 12.236247991595485 -0.218992795975034 1
-1.975122759247786 8.865258704416863 -0.158537660076283 2
-1.588890624398849 7.250821681914199 -0.129566665390393 21
-1.555146441442445 7.217227198693315 -0.128868569132901 33
-1.511710788810614 7.136535073822244 -0.127332757366420 20
-1.357592899671098 6.521170699101831 -0.116267931685183 14
-1.336296550364301 6.521485530606837 -0.116198122059434 14
-1.315891597656850 6.537872634527307 -0.116407550936681 15
-1.294244552290145 6.554422592333085 -0.116616979813928 15
-1.268313206689862 6.543195178174250 -0.116337741310932 14
-1.243597081145210 6.537760198013235 -0.116163217246559 14
-1.221135280285401 6.544027095273381 -0.116198122059434 14
-1.199427790203091 6.548040544507830 -0.116198122059434 14
-1.177270412932603 6.556123865737677 -0.116267931685183 14
-1.155071209585011 6.564132237450316 -0.116337741310932 14
-1.129433640688089 6.552359122881471 -0.116058502807935 14
-1.107885951840525 6.564148894879235 -0.116198122059434 14
-1.084966046590529 6.567976147503551 -0.116198122059434 14
-1.063947069022064 6.583567871329670 -0.116407550936681 15
-1.039711119272904 6.579340890736848 -0.116267931685183 14
-1.014831720329404 6.562990430577230 -0.115918883556437 38
-0.970112782587963 6.422152617577845 -0.113370832216594 19
-0.941562074204251 6.383955637331361 -0.112637831146228 8
-0.920696518967973 6.397099912653553 -0.112812355210601 6
-0.910591024182224 6.487407223489809 -0.114348166977082 2
-0.884958715158453 6.468752602348028 -0.113964214035461 23
-0.961026106801583 7.192979052041997 -0.126669565921804 22
-2.291940082861488 17.622878970029078 -0.310199072016277 26
-2.227082979710903 17.629177053704609 -0.310164167203403 39
-2.166263204420205 17.642797990972397 -0.310268881642026 39
-0.793659306957030 6.655826897254376 -0.117000932755549 9
-0.771110818004594 6.664516064482966 -0.117105647194172 56
-0.749452747977278 6.671010904718142 -0.117175456819922 60
-0.725729382835603 6.669610418179182 -0.117105647194172 36
-1.694030338522037 16.090606796195345 -0.282414840968122 6
-1.635221741075438 16.070559536238349 -0.281961078400752 6
-1.576699484559563 16.080425283977679 -0.282030888026502 4
-1.519429591729801 16.073886100782808 -0.281821459149254 4
-0.689161046219344 7.543430988243696 -0.132219431168860 11
-0.663000339855200 7.547782677049328 -0.132254335981734 26
-0.633679458246621 7.546287404756614 -0.132184526355985 35
-0.603966297040355 7.506595047592447 -0.131451525285619 30
-0.551562000788580 7.135624518725738 -0.124924325278075 20
-0.526062061751075 7.129529261061215 -0.124784706026577 27
-0.499770275241017 7.111374370614238 -0.124435657897831 27
-0.475343573745847 7.119061327349050 -0.124540372336455 31
-0.447988614468756 7.100798456251094 -0.124191324207709 49
-0.401789718874203 6.743011094263818 -0.117908457890287 96
-0.378977587366877 6.736320248393723 -0.117768838638789 100
-0.370105204257697 7.015173720184428 -0.122620607628354 36
-0.351841348610672 7.168277216132417 -0.125273373406821 40
-0.328274221027906 7.201423635728578 -0.125831850412814 38
-0.304816306603213 7.242484186508411 -0.126529946670305 18
-0.281307053502807 7.289462854734293 -0.127332757366420 4
-0.543094310767007 15.398078418894976 -0.268941583198539 14
-0.489468697080440 15.403877734684508 -0.269011392824288 26
-0.438612432045006 15.413411720548901 -0.269151012075786 30
-0.385405756025678 15.438837731140966 -0.269569869830281 30
-0.331898134594565 15.458082101208442 -0.269884013146152 10
-0.278620317433032 15.497134539288275 -0.270547204590769 18
-0.048606692758732 3.355136794854709 -0.058570276003523 1
-0.035883365245746 3.263305595898683 -0.056964654611293 2
-0.023585368067064 3.217423437737282 -0.056161843915178 21
-0.012369677221065 3.221485525689274 -0.056231653540927 30
-0.001128707003533 3.233507249139232 -0.056441082418175 45
0.010095524348141 3.213494634207036 -0.056092034289429 41
0.023481697189669 3.281412635094384 -0.171975952214313 1
0.034425499377736 3.233379176119527 -0.169463826314652 1
0.044980265287031 3.221264852525409 -0.168835794839737 1
0.055945448151807 3.205112578032666 -0.167998419539850 3
0.067049383193354 3.200904123257074 -0.167789075714878 6
nan nan nan 0
nan nan nan 0
0.099937529554191 3.180063753559889 -0.166742356590019 41
0.110343741571261 3.175722754642705 -0.166533012765047 42
0.121428410447279 3.175318235515244 -0.166533012765047 43
0.132396625727191 3.158887793072281 -0.165695637465160 39
0.143331793627599 3.156411194547192 -0.165590965552674 32
nan nan nan 0
0.166722898911907 3.181262423112396 -0.166951700414991 2
0.178049541372631 3.184649359993279 -0.167161044239963 1
0.188691156659329 3.176033474936524 -0.166742356590019 2
0.196220760919386 3.127550134580037 -0.164230230690358 2
0.207928862732082 3.138803488821623 -0.164858262165273 4
nan nan nan 0
nan nan nan 0
0.239563292680436 3.120522805151726 -0.164020886865386 51
0.250134829401082 3.115685854749674 -0.163811543040414 43
0.261342636660470 3.118774306508127 -0.164020886865386 42
0.272575049086521 3.121822428316972 -0.164230230690358 45
0.281841256478919 3.114983303425862 -0.163916214952900 38
nan nan nan 0
nan nan nan 0
0.313441259775092 3.101925426485613 -0.163392855390471 2
0.325640587694463 3.108701334321572 -0.163811543040414 2
0.336489996492723 3.107545697270926 -0.163811543040414 2
0.345906767002795 3.098473056740856 -0.163392855390471 3
0.355806267369205 3.089310169074979 -0.162974167740527 7
nan nan nan 0
0.376880141751617 3.082785910641382 -0.162764823915555 51
0.389633059766045 3.097304699113282 -0.163602199215442 57
0.395830677476037 3.060272100541350 -0.161718104790696 45
0.407036836404486 3.062831453931908 -0.161927448615668 43
0.418265679613978 3.065349813935453 -0.162136792440640 41
0.428981613923564 3.067901971536112 -0.162346136265612 39
nan nan nan 0
nan nan nan 0
0.459300807269804 3.051391489636198 -0.161718104790696 2
0.472382747782282 3.065561327961028 -0.162555480090584 2
0.480592172693254 3.048110630887416 -0.161718104790696 2
0.491229136448740 3.046414481006603 -0.161718104790696 3
0.499261486306423 3.028915871920117 -0.160880729490809 7
nan nan nan 0
0.517009185980510 3.005673067840564 -0.159834010365950 40
0.530952264599372 3.023521636038893 -0.160880729490809 57
0.538684596297665 3.005922326090769 -0.160043354190922 43
0.551328973285786 3.015811842447049 -0.160671385665838 43
0.561120706560575 3.009942106718536 -0.160462041840866 43
0.571996825982589 3.009927235250097 -0.160566713753352 38
nan nan nan 0
0.595455137046206 3.015554205787785 -0.161090073315781 3
0.602040280576658 2.993876688399591 -0.160043354190922 4
0.611042937957238 2.990013736738282 -0.159938682278436 6
0.620662860287448 2.983951767756480 -0.159729338453465 8
0.630767642314497 2.977749074842059 -0.159519994628493 10
0.643682327907611 2.987243825079336 -0.160148026103408 9
0.643759714551177 2.940218927534042 -0.157740572116233 24
0.659226921185784 2.961348330815134 -0.158996635066063 40
0.674408629182571 2.980457282132939 -0.160148026103408 21
2.271952102627927 9.880234936967506 -0.531314627778366 8
2.310516126256724 9.889748129362822 -0.532256674990739 3
2.333033424700508 9.831097166929743 -0.529535205266106 32
nan nan nan 0
2.392306909275754 9.783947413607196 -0.527860454666331 40
2.421152022991665 9.754214291466763 -0.526709063628987 52
2.461040808593851 9.768944413986208 -0.527965126578817 58
nan nan nan 0
2.629966511801086 10.140116890650818 -0.549004180988481 4
nan nan nan 0
2.819122090026058 10.565350511044313 -0.573078720860235 29
2.810602097395696 10.387715202825836 -0.563972264473963 32
2.841032822933246 10.356653955957009 -0.562820873436618 39
2.553438877389357 9.182504629859359 -0.499494366382656 13
2.575182017294949 9.137010548079944 -0.497505600045424 32
2.584151859187069 9.059731703391970 -0.493737411195932 13
nan nan nan 0
2.583356640216297 8.822956907491621 -0.481804813172541 3
2.613002927231982 8.810055930933753 -0.481595469347569 6
2.629949414783182 8.754973513707073 -0.479083343447908 13
2.654099932055939 8.724721118724981 -0.477931952410563 9
2.675719607108712 8.686772009751197 -0.476361873723275 6
2.737539612678802 8.778434035589688 -0.481909485085027 9
2.766361631071657 8.763110927635143 -0.481595469347569 6
2.773833659934855 8.681106146890528 -0.477617936673105 9
2.804119476248317 8.671370772230476 -0.477617936673105 4
2.857975355529112 8.733661698914846 -0.481595469347569 3
2.824175984415254 8.534522374135978 -0.471128278098980 22
2.841268417834431 8.486733417329908 -0.469034839849263 22
2.873438045385259 8.484330685731852 -0.469453527499206 65
2.898505442838357 8.461022573358399 -0.468720824111805 45
2.935868684217251 8.473499678094072 -0.469976887061636 43
2.966089283399358 8.465084860225321 -0.470081558974121 40
2.607975518983692 7.352458813517254 -0.408848490169877 12
2.484615024688272 6.927828761477711 -0.385715997510496 7
2.534933607809704 6.998859911549366 -0.390112217834903 5
2.577203068866442 7.038731564404468 -0.392833687559536 5
3.055140861738884 8.254690949045157 -0.461289118325307 39
nan nan nan 0
3.087973814424419 8.167774025423517 -0.457625601388301 50
3.097219609558430 8.106570677023470 -0.454799459751182 50
3.103917989793944 8.039813243304238 -0.451659302376605 48
3.102930001962972 7.954501482242470 -0.447472425877170 52
3.108795077313473 7.892136081073407 -0.444541612327565 50
3.123032192291579 7.847833347348462 -0.442657517902819 50
3.129548525807255 7.784996496472963 -0.439726704353214 53
3.137918735521488 7.727761961840368 -0.437109906541067 26
2.169953406178400 5.288263932791612 -0.299571013534610 16
2.183811832077390 5.269586603857654 -0.298942982059695 24
2.198191386266306 5.254945658614537 -0.298524294409752 32
2.218075540309467 5.250920215625820 -0.298733638234723 32
2.247361543218311 5.268865402289071 -0.300199045009526 14
2.341580280865999 5.437088581846182 -0.310247548608171 14
nan nan nan 0
2.378678155016840 5.418780086964279 -0.310142876695685 3
2.418617226099278 5.457919989735542 -0.312864346420318 3
2.447440687776053 5.471322184649282 -0.314120409370149 7
2.469811858796666 5.470026923022695 -0.314539097020092 10
2.480608270678197 5.443198061474937 -0.313492377895234 6
2.484570866526382 5.401844489327781 -0.311608283470488 4
2.510979944153438 5.409443225587014 -0.312550330682861 8
2.540013960787609 5.422349179674736 -0.313806393632691 8
2.568315005045549 5.433312399331887 -0.314957784670036 10
2.593194617177656 5.439188459171128 -0.315795159969923 10
2.622554914510347 5.451701408039761 -0.317051222919754 12
2.652906131935729 5.465872197580108 -0.318411957782070 15
2.686023175125431 5.485278479877424 -0.320086708381844 12
nan nan nan 0
3.281039783356454 6.583625031849584 -0.385506653685524 70
3.272602608706711 6.509676181224691 -0.381843136748518 54
3.281755904616400 6.471493381270521 -0.380273058061230 56
3.289773144699804 6.431548178937890 -0.378598307461456 56
2.640971686829793 5.118980832244621 -0.301873795609300 14
2.659746097203800 5.111502685469543 -0.301978467521786 24
2.676644265862888 5.100418775507336 -0.301873795609300 26
2.682286246086599 5.068095933817269 -0.300513060746983 24
2.696199159969093 5.051654130779091 -0.300094373097040 22
2.702457456992265 5.021107383589326 -0.298838310147209 22
2.711393598569738 4.995844930556243 -0.297896262934836 19
2.724980533173584 4.979341742241401 -0.297477575284893 19
2.732695728634823 4.952312470171608 -0.296430856160034 19
2.733684008343572 4.917518161068121 -0.294860777472746 16
2.735208512669191 4.880069707070631 -0.293186026872971 16
2.740298912992471 4.847409191144810 -0.291825292010655 16
2.741379575175801 4.810050591015433 -0.290150541410881 16
2.737421155610444 4.766294632325490 -0.288057103161163 14
2.720016723810359 4.697942716052333 -0.284498258136643 14
nan nan nan 0
3.342166855976604 5.678405047894820 -0.345312639290943 35
3.369101435574312 5.678728038709173 -0.346045342678345 43
3.368401837132032 5.632650366483390 -0.343951904428627 43
3.379794503888618 5.607173756125723 -0.343114529128740 52
3.375495176818585 5.556082342822409 -0.340707075141564 56
3.382353312908706 5.523826126606223 -0.339451012191734 56
3.395320999184541 5.501787918507461 -0.338822980716818 54
3.399937661203145 5.470737836522765 -0.337566917766988 56
3.399930520978384 5.428368585001633 -0.335682823342242 56
3.397282529696313 5.378125060046918 -0.333380041267552 57
3.403164530631812 5.346015417156592 -0.332123978317722 57
3.402697491731864 5.308394209896464 -0.330449227717947 56
3.412537002228761 5.283062675680185 -0.329611852418060 57
3.417883077021227 5.251031684091671 -0.328355789468230 54
3.420856523500921 5.215687809227441 -0.326890382693427 56
3.422326174489154 5.176457702719916 -0.325215632093653 57
3.429301555045998 5.147857939028982 -0.324168912968794 57
3.427656847911409 5.110519547776323 -0.322494162369020 57
3.432055436147050 5.078665727008918 -0.321238099419189 57
3.434025437151435 5.043541882649123 -0.319772692644387 57
3.440311530875235 5.015054369030402 -0.318725973519528 54
3.449582699641500 4.989268687639102 -0.317888598219641 56
3.457844843986438 4.964086175416528 -0.317051222919754 56
3.456794977838940 4.925828068649421 -0.315376472319980 56
3.450908404206385 4.881114721694366 -0.313283034070262 53
3.456338862096916 4.852770976873719 -0.312236314945403 53
3.459284932404078 4.821203484536914 -0.310980251995572 52
3.462052905132822 4.789674791547058 -0.309724189045742 52
3.466994389599620 4.761414928574069 -0.308677469920883 52
3.468592765088097 4.730563635394249 -0.307421406971052 50
3.473218245070006 4.702361701609095 -0.306374687846193 52
3.480073675796989 4.677390101506054 -0.305537312546306 53
3.482006006568349 4.646035201262033 -0.304281249596475 53
3.484567386243588 4.614115935581300 -0.303025186646645 53
3.483723538273717 4.579669857974623 -0.301559779871842 55
3.489175347645347 4.555407493163749 -0.300722404571955 53
3.490415449096060 4.524224121653016 -0.299466341622125 55
3.498833608247376 4.502550282471812 -0.298838310147209 53
3.499757024267454 4.471436187316506 -0.297582247197379 55
3.500506035543703 4.440370737635698 -0.296326184247548 53
3.501080993738083 4.409354771256595 -0.295070121297717 55
3.505706582214314 4.385240295651061 -0.294232745997830 56
3.509719380904610 4.358975388013622 -0.293290698785457 58
3.515606091087456 4.333673830122777 -0.292453323485570 56
3.513020547119136 4.299722394276996 -0.290987916710768 58
3.518378035637833 4.277251910921295 -0.290255213323366 24
3.512900197521266 4.240336014844730 -0.288580462723592 9
3.525121258948020 4.224980734571210 -0.288371118898620 6
nan nan nan 0
3.526873581883169 4.166111333615722 -0.286068336823931 65
3.519366104477783 4.127937261617764 -0.284288914311671 53
3.535637133222219 4.119275033704036 -0.284498258136643 56
3.539545702734063 4.094820230706727 -0.283660882836756 58
3.543326753799074 4.070388480157177 -0.282823507536868 60
3.533814272419805 4.030961886969698 -0.280939413112123 61
3.539932285732776 4.009618553148335 -0.280311381637207 61
3.548598599856369 3.991266973900640 -0.279892693987264 60
3.552543194699638 3.966331929995973 -0.279055318687376 57
3.558340302047092 3.945008560264847 -0.278427287212461 55
3.555291265067338 3.915443286905921 -0.277171224262631 54
3.552763621914696 3.885321797555166 -0.275915161312800 57
3.563598435860701 3.869958202634046 -0.275705817487828 54
3.566221055856440 3.845779338476839 -0.274868442187941 54
3.568718429580346 3.821629461990498 -0.274031066888054 54
3.565617855777956 3.791689215083946 -0.272775003938223 55
3.564441431360658 3.765339960963946 -0.271728284813364 57
3.573428886793895 3.748537886372355 -0.271414269075907 61
3.580959379993970 3.730278181809073 -0.270995581425963 58
3.577300686791576 3.700523799200970 -0.269739518476132 58
3.579050780473335 3.676565129055711 -0.268902143176245 58
3.580677335505919 3.652639470193797 -0.268064767876358 58
3.580777478190484 3.627326026674315 -0.267122720663985 57
3.590601235765225 3.611971762761391 -0.266913376839014 57
3.597535436123600 3.593770077017868 -0.266494689189070 57
3.597296717839904 3.568531086898004 -0.265552641976697 58
3.601194292555773 3.547542616800283 -0.264924610501782 60
3.610700150453104 3.532157166818338 -0.264715266676810 60
3.611547001558106 3.508398596793004 -0.263877891376923 63
3.615146990159421 3.487450609084356 -0.263249859902007 64
3.607106718913402 3.455467264853002 -0.261784453127205 63
3.604675776902861 3.429089146913080 -0.260737734002346 52
3.605008561407237 3.405513335126857 -0.259900358702459 40
3.618330713280758 3.394275214737909 -0.260005030614945 28
3.614081326716655 3.366649218014168 -0.258853639577600 19
3.611149517756798 3.340450680996730 -0.257806920452741 9
3.622787866295273 3.327825065653304 -0.257806920452741 4
3.646186804981849 3.325926774817942 -0.258644295752628 1
nan nan nan 0
nan nan nan 0
nan nan nan 0
nan nan nan 0
nan nan nan 0
nan nan nan 0
nan nan nan 0
0.545965821552432 0.470932582806876 -0.037786560407405 12
nan nan nan 0
nan nan nan 0
nan nan nan 0
nan nan nan 0
nan nan nan 0
nan nan nan 0
nan nan nan 0
nan nan nan 0
nan nan nan 0
0.484219715230949 0.389044434307301 -0.032552964783111 16
0.485439542830669 0.387521295853764 -0.032552964783111 16
0.508702631241679 0.403192737241557 -0.034018371557913 15
0.488200134702323 0.384037671277784 -0.032552964783111 16
0.480093244786296 0.374955030562110 -0.031924933308196 16
0.462521441315448 0.358509883705349 -0.030668870358365 17
0.482764051997918 0.371509984700032 -0.031924933308196 33
0.509383185186479 0.389311998133324 -0.033599683907970 31
0.510739034327047 0.387531547175143 -0.033599683907970 31
0.524850994486088 0.395359991071528 -0.034437059207857 45
0.507034139459043 0.379171996474361 -0.033180996258026 63
0.505147323108495 0.375018735654841 -0.032971652433055 64
0.514492246611794 0.379177810990795 -0.033495011995484 78
0.517358525494368 0.378649200896526 -0.033599683907970 93
0.513829656349962 0.373319097488627 -0.033285668170512 94
0.510269939054555 0.368018286818868 -0.032971652433055 96
0.511551453869179 0.366234870240619 -0.032971652433055 96
0.519338821122086 0.369074889507081 -0.033390340082998 94
0.533680369392070 0.376470087557049 -0.034227715382885 90
0.520266714224681 0.364294675179719 -0.033285668170512 78
0.514974979483842 0.357916934632991 -0.032866980520569 80
0.517865221911945 0.357251287009474 -0.032971652433055 64
0.528996899117249 0.362211736372000 -0.033599683907970 62
0.533498524350867 0.362701356709898 -0.033809027732942 46
0.524827690952034 0.354134037191119 -0.033180996258026 47
0.526122131917769 0.352208068893412 -0.033180996258026 31
0.510712767173883 0.339316751249808 -0.032134277133168 33
0.528568166900525 0.348526490279782 -0.033180996258026 31
0.513069180027934 0.335743063574799 -0.032134277133168 33
0.527638355420207 0.342652354472129 -0.032971652433055 32
0.528831220792850 0.340808465344653 -0.032971652433055 32
0.523287259761749 0.334656164226613 -0.032552964783111 16
0.524452239729959 0.332827511972882 -0.032552964783111 32
0.525610829413136 0.330994804320952 -0.032552964783111 32
0.533538101699942 0.333391607828176 -0.032971652433055 32
0.527851645846037 0.327409444673576 -0.032552964783111 32
0.522187555582047 0.321377573935045 -0.032134277133168 33
0.547170317308575 0.334125283535560 -0.033599683907970 31
0.541500484963203 0.328073537902619 -0.033180996258026 47
0.542642376316319 0.326181349732175 -0.033180996258026 47
0.533485334183516 0.318147297167415 -0.032552964783111 48
0.551782098804407 0.326453023696041 -0.033599683907970 46
0.535693402616859 0.314415144159122 -0.032552964783111 48
0.557499716425383 0.324602858627848 -0.033809027732942 61
0.548252378741846 0.316661255431150 -0.033180996258026 47
0.538956517720215 0.308788238912574 -0.032552964783111 65
0.546976844017649 0.310852380149045 -0.032971652433055 64
0.544578851875540 0.306979649528413 -0.032762308608083 64
0.559593344642768 0.312874335593070 -0.033599683907970 62
0.550095495815812 0.305299550636731 -0.032971652433055 64
0.530161349658899 0.291820260968265 -0.031715589483224 67
0.541695114274965 0.295709812745450 -0.032343620958139 65
0.563800695472294 0.305227516823504 -0.033599683907970 62
0.564968525934493 0.303060432826014 -0.033599683907970 62
0.558969716645729 0.297334621866203 -0.033180996258026 63
0.549404754097438 0.289790822247640 -0.032552964783111 65
0.561031865338873 0.293425062940625 -0.033180996258026 63
0.572587212229663 0.297181483331005 -0.033809027732942 61
0.570069247480155 0.293353224490024 -0.033599683907970 62
0.567582103267672 0.289447130300833 -0.033390340082998 47
0.568589004398284 0.287464135617836 -0.033390340082998 47
0.580251478516948 0.290948401053251 -0.034018371557913 45
0.588417555709642 0.292477125747988 -0.034437059207857 45
0.582268524718751 0.286890424236147 -0.034018371557913 30
0.583266411805015 0.284856179951656 -0.034018371557913 30
0.580710811629333 0.280976694586143 -0.033809027732942 30
0.596095200184610 0.285856850667877 -0.034646403032829 29
0.600647349717799 0.285593834296136 -0.034855746857801 29
0.605254055940856 0.285198119177797 -0.035065090682772 14
