# This PCD file was generated using the MATLABÂ® pcwrite function
# from Computer Vision ToolboxÂ®.
# .PCD v.7 - Point Cloud Data file format
VERSION .7
FIELDS x y z intensity
SIZE 8 8 8 1
TYPE F F F U
COUNT 1 1 1 1
WIDTH 936
HEIGHT 1
VIEWPOINT 0 0 0 1 0 0 0
POINTS 936
DATA ascii
nan nan nan 0
nan nan nan 0
nan nan nan 0
nan nan nan 0
nan nan nan 0
nan nan nan 0
nan nan nan 0
nan nan nan 0
nan nan nan 0
nan nan nan 0
nan nan nan 0
nan nan nan 0
nan nan nan 0
nan nan nan 0
nan nan nan 0
nan nan nan 0
-3.500259487394138 0.972023783844147 0.446041796862840 1
nan nan nan 0
nan nan nan 0
nan nan nan 0
nan nan nan 0
nan nan nan 0
nan nan nan 0
-3.452859287949218 1.049717162690632 0.443116932621116 3
nan nan nan 0
nan nan nan 0
nan nan nan 0
nan nan nan 0
nan nan nan 0
-3.486919983630254 1.139701127373360 0.450429093225425 1
-3.482920440767259 1.151865806099705 0.450429093225425 1
nan nan nan 0
nan nan nan 0
nan nan nan 0
nan nan nan 0
nan nan nan 0
-3.529576499920126 1.248502208877993 0.459691163324216 1
nan nan nan 0
nan nan nan 0
nan nan nan 0
nan nan nan 0
-6.724836117042817 2.510300649471327 0.881359091506027 2
-6.641740166922019 2.505731102461750 0.871609544033615 2
-6.581017195204288 2.509098607259496 0.864784860802926 4
-6.546285493518512 2.522064158687783 0.861372519187582 4
-6.456047667244807 2.513214369983473 0.850648016967929 2
-6.402899288977726 2.518297152240422 0.844798288484482 2
-6.357173823297303 2.525971787205166 0.839923514748276 2
-6.311473245538905 2.533358062134282 0.835048741012070 2
-6.251081925884788 2.534489231776034 0.828224057781382 2
-6.220152573617514 2.547266613855372 0.825299193539659 2
-6.141959722857373 2.539060884650885 0.816037123440867 6
-6.114740751219642 2.552837051991875 0.813599736572765 6
nan nan nan 0
-6.100422667047425 2.597018538913995 0.814087213946385 4
-6.098615209015850 2.621432851233270 0.815062168693626 4
-6.093069547993659 2.644285585581091 0.815549646067247 4
-6.102450982996046 2.672439562287649 0.817987032935350 17
-6.098531988736470 2.696132788109531 0.818718248995781 19
-6.112649542647842 2.727921107987005 0.821886851924315 23
-6.113949671509590 2.754133506333721 0.823349284045176 25
-6.118755301682580 2.782031415939458 0.825299193539659 21
-6.109006922232139 2.803372908705259 0.825299193539659 12
-6.106389285558239 2.828017136633422 0.826274148286900 12
-6.119859294952279 2.860241761187743 0.829442751215434 21
-6.134973880994290 2.893441527638616 0.832855092830778 21
-6.139176190483450 2.921663278047940 0.834805002325260 21
-6.141981201572936 2.948018313502892 0.836511173132932 17
-6.149519400829024 2.978092082609206 0.838948560001035 6
-6.182419477682965 3.019375639720899 0.844798288484482 2
nan nan nan 0
-15.971416617794311 7.935230137219205 2.189748362303690 3
nan nan nan 0
-15.739238241924394 7.964257999747173 2.165861970996281 3
-15.534531844944254 7.928904909636324 2.141488102315251 2
nan nan nan 0
-15.408329238798592 8.000571529745917 2.131738554842840 2
-15.323316964350814 8.017648482825923 2.123451439491290 2
-15.221499425975269 8.032177790784390 2.113214414645257 2
-15.133787318781373 8.053554895484364 2.104927299293708 2
-15.084593271984405 8.095068596487517 2.102002435051984 2
-14.942428876245000 8.082711862184851 2.085915681722504 2
-14.840930034676006 8.094898258733037 2.075678656876472 2
-14.784753027243196 8.131347389596918 2.071778837887507 2
-14.683365874350843 8.142473085803283 2.061541813041475 2
-14.591053854640935 8.161349775016552 2.052767220316304 2
-14.520978144252837 8.188830106661149 2.046917491832857 2
-14.438515754724536 8.205552094689388 2.039117853854927 2
-14.299550040298712 8.192744180669283 2.023518577899069 2
-14.226171763738945 8.216795011492222 2.017181372042001 2
nan nan nan 0
nan nan nan 0
nan nan nan 0
nan nan nan 0
-13.792814648387012 8.287559147762222 1.975745795284251 2
-12.711055891976695 7.698089078984659 1.824627809461868 2
-12.656997072446169 7.725864009468299 1.820727990472903 2
-12.558939887128609 7.726311369267581 1.810490965626871 2
-12.474531588975648 7.734537278835854 1.802203850275321 2
-12.374734307750817 7.729589417172489 1.791479348055668 2
-12.324158228464329 7.757932994055475 1.788067006440324 2
-12.273535342892927 7.786017847017604 1.784654664824980 2
nan nan nan 0
nan nan nan 0
nan nan nan 0
-12.233401434097438 8.002264502912452 1.794891689671012 2
-12.142411039074998 8.003404589289234 1.785629619572221 9
nan nan nan 0
-16.636316834808888 11.132839075484300 2.457860917795014 3
-16.540047812489554 11.148004778116814 2.449086325069844 3
-16.501033246202468 11.205672401961282 2.449086325069844 3
nan nan nan 0
-16.236080376684196 11.192159030144643 2.421300114773470 3
-16.115390918220722 11.192147838408554 2.409113180432955 3
-16.076224851052867 11.248332864129443 2.409113180432955 3
-15.957700294294940 11.244410606530353 2.396926246092440 3
nan nan nan 0
-15.636608524779136 11.182333066849743 2.360365443070897 3
nan nan nan 0
nan nan nan 0
nan nan nan 0
nan nan nan 0
-15.122168617417845 11.214341883901893 2.311617705708837 3
nan nan nan 0
nan nan nan 0
-3.866463995561102 2.930553674232955 0.595697350564361 8
-3.857788726108791 2.945236894181865 0.595941089251171 10
-3.822306615600348 2.939323607676455 0.592041270262207 10
-3.794759998517563 2.939276641196194 0.589360144707293 12
-3.784476889373724 2.952504918476305 0.589360144707293 40
-3.752295695966169 2.948526103341376 0.585947803091949 30
-3.737310866004126 2.957910248319017 0.585216587031518 34
-3.709888263892062 2.957326749880402 0.582535461476605 36
-3.689224017967149 2.960915311243357 0.580829290668933 36
-3.664971854161124 2.962543856460135 0.578635642487640 34
-3.648450595469186 2.970305772519022 0.577660687740399 32
-3.627314740722237 2.974212528748400 0.575954516932727 34
-3.603134910779520 2.975480008370324 0.573760868751434 36
-3.583569263726684 2.980423096055926 0.572298436630573 34
-3.565054959362907 2.984021680999877 0.570836004509711 32
-3.542474901279598 2.986212347557090 0.568886095015228 34
-3.536569376620108 3.002413889402292 0.569617311075659 34
-3.538137856671148 3.025060564610273 0.571567220570142 48
-3.523044003252819 3.033506750791853 0.570836004509711 50
-3.522931932193162 3.054889532964588 0.572542175317383 46
-3.530727430587479 3.082220870943258 0.575467039559106 46
-3.537837416239065 3.110254848380845 0.578391903800830 44
-3.534390482026285 3.129164661077304 0.579610597234881 42
-3.548634765511455 3.163940958303110 0.583754154910656 44
-3.555293702292250 3.192223428729178 0.586679019152380 40
-3.554436084185765 3.213933881036422 0.588385189960052 40
-3.564645597219153 3.246991361327040 0.592041270262207 42
-3.566455515655647 3.271491390261002 0.594234918443499 44
-3.564337669486537 3.291380507387422 0.595697350564361 38
-3.574632294662343 3.324079334622683 0.599353430866515 44
-3.584741804060738 3.356889889117528 0.603009511168670 44
-3.593221323191635 3.388449359076650 0.606421852784014 44
-3.588318221590294 3.405186846386539 0.607396807531255 42
-3.592196761728876 3.432777787825172 0.610077933086168 42
-3.600217292716557 3.464566513731743 0.613490274701512 40
-3.606633875780654 3.495071374766397 0.616658877630046 44
-3.618564001424462 3.531208702967490 0.620802435305821 34
-3.611879209145511 3.549383813531752 0.621777390053062 20
-6.489200795343341 6.421599385896280 1.120954220640547 5
-6.527208854205989 6.504464270803822 1.131434984173389 3
-6.512349144052929 6.530560493264484 1.132409938920630 3
-6.531417434118881 6.595568499920412 1.139722099524939 3
-6.527840904221710 6.638142569924872 1.143134441140284 5
-6.546237132023321 6.703495508154935 1.150446601744592 5
nan nan nan 0
-11.576872473047585 12.017550087874454 2.048867401327339 2
-4.102927678446995 4.288970285557318 0.728778673562782 2
-4.041446543355010 4.254332585935211 0.720491558211232 2
nan nan nan 0
-11.302097425031425 12.065016174554003 2.029855783756136 2
-11.251801473172563 12.095673607507502 2.028393351635275 2
-11.187959571619253 12.111545341536168 2.024493532646310 2
nan nan nan 0
nan nan nan 0
-11.036012934170152 12.196669323445949 2.019618758910104 2
-10.958876126238746 12.196726259037330 2.013281553053036 2
-10.886645991140012 12.197456314055824 2.007431824569589 2
nan nan nan 0
-8.246492938291942 9.370281692032158 1.532628862663135 1
-8.229409376264186 9.416947279752801 1.535553726904858 1
-8.154855004821822 9.397638176377059 1.527754088926929 1
-8.116818290212308 9.420031333233899 1.526779134179688 1
-8.050332985540598 9.409089815944771 1.520441928322620 1
-7.978882344188163 9.391748018534523 1.513129767718311 1
-7.920451026368646 9.389195834150222 1.508254993982105 1
nan nan nan 0
-7.827528706334278 9.404900678354593 1.502405265498658 1
-7.776948166645048 9.410743723397422 1.498992923883314 1
-7.717225281335007 9.408487918391817 1.494118150147108 1
-7.651743895524503 9.395349233483071 1.487780944290040 1
-7.613055016022364 9.411411509619580 1.486318512169179 1
-7.587615014951293 9.447214946569868 1.487780944290040 1
-7.547988775845381 9.468752472695218 1.486805989542799 1
-7.448365414967424 9.410987711728838 1.473644100455043 5
-7.414662939922631 9.432514354678142 1.473156623081423 5
-7.391462752770248 9.470858202505301 1.475106532575905 7
-7.400461617701588 9.554383321329578 1.483881125301076 5
-7.415469356871684 9.643102075092186 1.493630672773488 1
nan nan nan 0
-7.539820582478245 9.947760067139201 1.532628862663135 1
nan nan nan 0
nan nan nan 0
nan nan nan 0
nan nan nan 0
nan nan nan 0
nan nan nan 0
-7.758552693977006 10.773343526474957 1.630124337387252 2
nan nan nan 0
-4.528556460834818 6.381728710743302 0.960817903406183 4
-4.501679926441883 6.391005817066660 0.959842948658942 8
-4.475910833284046 6.399392032274805 0.958867993911700 8
-4.453545517649514 6.414976889473232 0.958867993911700 40
-4.424367737776185 6.420676032255264 0.957405561790839 40
-4.381756671292914 6.406587598662814 0.953018265428253 38
-4.359372354624471 6.419440581151018 0.952774526741443 42
-4.335828291488901 6.432972417516839 0.952530788054633 38
-4.310055905463184 6.440716077260401 0.951555833307391 38
-4.274368415903385 6.435878333969428 0.948630969065668 44
-4.240952308984551 6.434185046913613 0.946193582197565 40
-4.220640321742528 6.452272022003590 0.946681059571186 44
-4.187283293983546 6.450315225048036 0.944243672703083 36
-4.195918418788617 6.513287182483130 0.951312094620581 40
-4.204164558139471 6.576397429718200 0.958380516538080 32
-4.206703988364062 6.631262744671456 0.964230245021527 32
-4.230061610717273 6.719824552052521 0.974954747241180 34
-4.244438488123564 6.795160226677862 0.983729339966351 30
-4.259539599596924 6.869934085786961 0.992503932691521 31
nan nan nan 0
-7.345259196150455 12.033466292973584 1.731032153726715 2
-7.307323135888996 12.065824628424576 1.732007108473956 2
nan nan nan 0
nan nan nan 0
-7.188655713603378 12.155352980934593 1.733957017968438 2
-1.096939913551008 1.869688816871585 0.266162645996842 1
-1.090406798703031 1.873506460949139 0.266162645996842 1
nan nan nan 0
nan nan nan 0
-6.950100662559055 12.229419392538613 1.727132334737750 2
-6.921016755349739 12.277815041582690 1.730544676353094 2
-6.891679501956698 12.326156363690503 1.733957017968438 2
-6.852461979752637 12.357081850748315 1.734931972715680 2
-6.805459450540297 12.373968592448009 1.733957017968438 2
nan nan nan 0
-5.311658274471564 9.819609721897857 1.370786374621099 1
-5.303623221390843 9.887071583578644 1.377611057851787 1
-5.239246580488369 9.849442214807095 1.369811419873858 1
-5.176909976344084 9.810581175588212 1.362011781895928 3
-5.133430123645895 9.811003446642427 1.359574395027825 5
-5.094581285031298 9.820052307302470 1.358355701593774 33
nan nan nan 0
-5.017697274744731 9.835051423500600 1.355674576038861 45
-4.977960202088691 9.841878158953509 1.354212143917999 35
-4.936457129737386 9.844998418263804 1.352262234423516 35
-4.892342297278345 9.842616200830255 1.349581108868603 39
-4.854445899871412 9.852510971640054 1.348606154121362 37
-4.838318610216356 9.906854523673161 1.353724666544378 31
-4.861656699022332 10.043396188707911 1.370055158560668 20
-4.889251800416202 10.190958665968521 1.387848082697819 20
-4.910005041961469 10.321842955567623 1.403447358653678 15
-5.828757634589999 12.364327461714236 1.678384597375691 2
-5.745233347482091 12.298269407754908 1.666685140408797 2
-5.470442687000888 11.817448673075758 1.598925785475535 4
-5.452332003889190 11.886993612836486 1.605750468706223 2
nan nan nan 0
-5.563708421320701 12.350974706448026 1.663272798793453 2
-5.510044681642798 12.346754458770596 1.660104195864919 10
-5.480558105749299 12.396777737151714 1.664247753540694 10
-5.431677668165685 12.403104337013124 1.662541582733022 10
-5.393089451410061 12.432915700174263 1.664004014853884 10
-5.346523208115083 12.444369808484783 1.663029060106643 10
-5.335695408284181 12.539674442303605 1.673266084952675 17
-5.380539119892533 12.768593915706624 1.701296033935859 17
-5.401606923626242 12.931972269033581 1.720795128880682 8
-5.409542117029193 13.079155465790890 1.737856836957403 2
-5.320221350615832 12.991411400065871 1.723719993122406 4
nan nan nan 0
-5.256686506012270 13.102843444433672 1.733469540594818 4
-5.177213114972123 13.036246287015814 1.722257561001544 2
-5.169670182625648 13.137418679280236 1.733469540594818 2
-5.105049056963201 13.107290796511018 1.727132334737750 2
-6.171706520750431 16.019320019226956 2.107852163535431 5
-5.026683455580767 13.184292622184909 1.732494585847577 4
-6.089163550323868 16.131531191401223 2.117114233634222 2
-4.932657797605142 13.207044738869081 1.731032153726715 2
nan nan nan 0
-4.804895411804101 13.144208867485684 1.718357742012579 10
-4.763034486845266 13.172101770247838 1.719820174133441 12
-4.710341125213676 13.169956220357207 1.717382787265338 12
-4.663016733476454 13.182575220274314 1.716895309891718 10
-4.619594340138223 13.206266917128101 1.717870264638959 12
-4.576063333331354 13.229816003298517 1.718845219386200 12
-4.533708880626282 13.256978591289068 1.720307651507062 10
-4.482319448697247 13.257679247526537 1.718357742012579 10
-4.439160313409886 13.282658340652420 1.719576435446631 12
-4.396957948219806 13.302960512072225 1.720307651507062 10
-4.355426298992587 13.333323465948641 1.722257561001544 10
-4.311296986034638 13.356001946498614 1.723232515748785 10
-4.259823944104793 13.355840001835821 1.721282606254303 4
-4.264484866418734 13.533453742633389 1.742244133319989 8
-4.343475272004947 13.953870863827390 1.794404212297392 9
-4.430261645332910 14.400790541204762 1.849976632890139 9
-4.989353160314461 16.421894930889621 2.107364686161810 5
-5.075749816054125 16.918355223488032 2.168786835238004 15
-5.048799222707950 17.044460527884691 2.182679940386191 48
-4.986486446813625 17.052453774861558 2.181461246952140 45
-4.925280409977939 17.064034265537991 2.180730030891709 45
-4.862422802107140 17.069667871007216 2.179267598770847 21
-0.618816225682414 2.201508836657199 0.280786967205460 2
-0.611896939337956 2.203442037966146 0.280786967205460 4
nan nan nan 0
-0.602712759020812 2.230656613378761 0.283711831447183 41
-0.590322725085732 2.215483376768607 0.281518183265891 33
-0.578550423182484 2.202170971595040 0.279568273771408 33
-0.570859887236756 2.204177073069338 0.279568273771408 32
-0.562073465002807 2.200288007326955 0.278837057710977 26
nan nan nan 0
-0.550522054180011 2.219572063914344 0.280786967205460 3
-0.541828637171826 2.217623485612590 0.280299489831839 3
-0.533155543198108 2.215641307712332 0.279812012458219 5
-0.528622033465485 2.231010143012687 0.281518183265891 12
-0.522634878393799 2.240574571591357 0.282493138013132 18
-0.517919925819688 2.255928567863953 0.284199308820804 34
-0.502168389828202 2.222869349723783 0.279812012458219 29
-0.492252731870187 2.214919639752521 0.278593319024167 30
-0.485329326008277 2.218479060203958 0.278837057710977 25
nan nan nan 0
-0.473115241601210 2.237350363088488 0.280786967205460 2
-0.460455647457801 2.215665418889050 0.277862102963736 2
-0.455101456714182 2.228928995772724 0.279324535084598 2
-0.448098930083777 2.234396694085868 0.279812012458219 1
-0.444132037238511 2.255424130862818 0.282249399326322 2
-0.433242570638862 2.241368570982078 0.280299489831839 2
-0.424676240724609 2.238966575955991 0.279812012458219 3
-0.414679500202508 2.228725739797927 0.278349580337357 5
-0.411566217296437 2.253522117842873 0.281274444579080 10
nan nan nan 0
-0.398224773921640 2.270027092514623 0.282980615386752 35
-0.386600556153749 2.249882709383230 0.280299489831839 40
-0.377427271910442 2.243388164923318 0.279324535084598 36
-0.370239102279186 2.248609402459125 0.279812012458219 36
-0.362703403821658 2.251847911628753 0.280055751145029 38
-0.355458429493591 2.257022109292304 0.280543228518649 39
-0.347458051540205 2.252242025205987 0.279812012458219 36
-0.338410888040850 2.245589447361759 0.278837057710977 33
-0.331332587176892 2.254670697542936 0.279812012458219 32
nan nan nan 0
-0.315977973399078 2.256873757659186 0.279812012458219 2
-0.308098088776977 2.257962976971956 0.279812012458219 2
-0.299691428386867 2.255089100645740 0.279324535084598 2
-0.292327153358484 2.260058864962019 0.279812012458219 2
-0.285031352213742 2.268993567047462 0.280786967205460 3
-0.276868803788402 2.268004224515711 0.280543228518649 5
-0.269183971494786 2.270928151337654 0.280786967205460 11
-0.261482097094422 2.273826038914322 0.281030705892270 16
-0.253763268821762 2.276697803886941 0.281274444579080 21
-0.244323488184062 2.263754318255859 0.279568273771408 7
-0.240519452312071 2.296099351823936 0.283468092760373 3
-0.229104520890096 2.263349933750301 0.279324535084598 3
-0.221588602318744 2.268087240166592 0.279812012458219 2
-0.213297902741647 2.264894215804745 0.279324535084598 2
-0.207857280156493 2.297293041025798 0.283224354073563 2
-0.199493011146478 2.294049344948289 0.282736876699942 2
-0.191222901557377 2.286785521481518 0.281761921952701 3
-0.182605319197936 2.279524067968614 0.280786967205460 4
-0.176366831342991 2.307888535797994 0.284199308820804 9
nan nan nan 0
-0.162299715008626 2.326830005971153 0.286392957002097 37
-0.152208362189853 2.297671097662466 0.282736876699942 41
-0.143938467625963 2.294226011995640 0.282249399326322 43
-0.136164012967545 2.298677711234556 0.282736876699942 43
-0.128178499340527 2.307089480060037 0.283711831447183 43
-0.120330872713241 2.311487666836630 0.284199308820804 44
-0.111972704334453 2.305945349281033 0.283468092760373 41
-0.103475983268999 2.296406757842879 0.282249399326322 37
-0.095943035967468 2.298720635663420 0.282493138013132 31
nan nan nan 0
-0.081340312628410 2.340996217868561 0.287611650436148 2
-0.072920187465929 2.333329391865726 0.286636695688907 1
-0.065071333366980 2.329589737793201 0.286149218315286 2
-0.057133151730244 2.337740685408997 0.287124173062527 2
-0.048482067542074 2.333965058395560 0.286636695688907 2
-0.040334713738556 2.334120073079398 0.286636695688907 3
-0.032455689788820 2.324316500003642 0.285418002254855 6
-0.024321325919436 2.322430647512201 0.285174263568045 11
-0.015809028711815 2.322504190310452 0.285174263568045 15
-0.007662383039242 2.310634736297160 0.283711831447183 8
0.000000000000000 2.324543087143976 0.285418002254855 4
0.008134957412661 2.330484165860271 0.286149218315286 3
0.008536589988577 2.329087560002758 0.203770126544025 33
0.017146089531300 2.339002307137616 0.204641683971501 36
0.023921834203907 2.323002868004440 0.203247192087539 37
0.032408086564442 2.320907391752032 0.203072880602044 33
0.041195377108747 2.336709659862247 0.204467372486006 23
nan nan nan 0
0.058268059974383 2.384178193163875 0.208650848137894 1
0.067230032025616 2.391915027399377 0.209348094079875 1
0.074660878732811 2.375747682840202 0.207953602195912 1
0.083787731530455 2.399366702107055 0.210045340021856 1
0.091896129510855 2.403057527758561 0.210393962992847 1
0.099286783712464 2.378834234992122 0.208302225166903 1
0.106509459645456 2.354588917394422 0.206210487340959 2
0.114921820769087 2.358182840463872 0.206559110311950 4
0.121282040745139 2.321953134427304 0.203421503573034 22
0.131382108444845 2.357323074066795 0.206559110311950 27
0.139845529669850 2.360827909386678 0.206907733282940 29
0.148584529414101 2.368279293119756 0.207604979224922 29
0.156305860131504 2.365785492425238 0.207430667739426 23
nan nan nan 0
1.195931095644222 16.363682883721680 1.435455083053930 12
1.236153879914384 16.138899279154955 1.416106508163950 16
1.277208573237260 15.943827350146124 1.399372605556400 16
1.314924348972531 15.724842257827872 1.380546965122905 15
1.353202568389299 15.529609162481107 1.363813062515355 15
1.391393210069780 15.348192526284697 1.348299340306272 15
1.422667515356639 15.163230948408325 1.332436995126198 15
1.456091485201717 14.957887939848087 1.314831535091171 14
1.496660045063092 14.785676863466406 1.300189370309565 14
1.530826713956614 14.613912479353228 1.285547205527958 18
1.559626531856794 14.450560290369967 1.271602286688333 17
1.591519495448168 14.278697452763142 1.256960121906726 17
1.624465973363650 14.104527410196372 1.242143645639624 21
1.654900392770318 13.940491260263949 1.228198726799999 20
1.686869181584057 13.798170744453090 1.216171234300822 16
1.714880624471200 13.632076856574397 1.202052003975701 20
1.743231508863434 13.495900884545948 1.190547445933011 19
1.771719326210940 13.349503621678453 1.178171330462843 22
1.795827466720376 13.195490685544309 1.165097969050694 19
1.822863389620705 13.052988069361197 1.153070476551518 21
1.856547597221411 12.931506815507859 1.142960410392789 21
1.882244180605394 12.792879227127729 1.131281540864603 18
1.908183425462082 12.662111992481263 1.120299917278398 21
1.932929130732564 12.529351962583705 1.109143982206698 21
1.956150189618851 12.392638949399560 1.097639424164007 21
1.981298257227577 12.273620408961786 1.087703669490774 24
2.003194034689225 12.152962671112068 1.077593603332046 23
2.024095299421359 12.018189409094017 1.066263356774850 23
2.048133375941846 11.906982495366805 1.057024848043598 23
2.069352335089397 11.783981300939345 1.046740470399375 23
2.092900863597226 11.678628784672432 1.038024896124609 23
2.112872952852525 11.557577384012642 1.027914829965880 23
2.132755971004564 11.440447528359044 1.018153386778143 23
2.149615443157043 11.311576872053370 1.007346074677433 24
2.173935105499931 11.225762459048001 1.000373615257620 27
2.195753918907800 11.130143472744656 0.992529598410331 27
2.217324334156811 11.036463373210664 0.984859893048537 27
2.234674339311400 10.925201577622538 0.975621384317286 28
2.251416110369603 10.824100348748802 0.967254433013510 28
2.268971085502247 10.720664124502424 0.958713170224240 31
2.287749543381838 10.635167683029435 0.951740710804427 31
2.307401534316950 10.547316457191263 0.944593939899119 32
2.321277219075865 10.436120269984638 0.935355431167868 35
2.337920012374949 10.340503691408932 0.927511414320578 16
2.353923802328387 10.244899150838751 0.919667397473289 29
2.373365270213616 10.166771956346805 0.913392183995458 37
2.390451380237591 10.080880193793616 0.906419724575645 37
2.405101130727564 9.987245914361781 0.898750019213851 40
2.418653343865888 9.891697857150389 0.890906002366562 40
2.437807784733056 9.821316178366201 0.885328034830712 42
2.451880307012184 9.739757999654401 0.878704198381890 42
2.469097082147228 9.665506445402844 0.872777607875049 42
2.481826649333081 9.575824846202904 0.865456525484246 42
2.495986837632681 9.493880772297944 0.858832689035424 45
2.508988651468091 9.416243714861846 0.852557475557592 43
2.525731556912287 9.347802442740846 0.847153819507237 47
2.542512121224541 9.287489998693051 0.842447409398864 50
2.555203235880529 9.207524529457688 0.835997884435537 50
2.565748878636647 9.121830602266867 0.829025425015725 50
2.582281677825994 9.059168993025015 0.824144703421856 54
2.599514172252929 9.000332063113605 0.819612604798977 52
2.611891298674348 8.926188151392207 0.813686014292137 52
2.621928431687876 8.840149350519596 0.806713554872324 52
2.636720733379750 8.777514903527194 0.801832833278455 52
2.647628763723262 8.703448694754417 0.795906242771614 52
2.660398113349074 8.637030503658700 0.790676898206755 58
2.677481456559056 8.585846297551283 0.786842045525858 58
2.685843034292733 8.508049048744823 0.780566832048026 54
2.694385993219991 8.442627073372556 0.775337487483167 58
2.708530494586570 8.385771810724959 0.770979700345784 58
2.726457563889510 8.331757638634382 0.766970536179392 54
2.736736549867546 8.265447562813327 0.761741191614532 58
2.743889940100578 8.195868543062767 0.756163224078682 56
2.753947799999335 8.131514742057139 0.751108190999318 60
2.767464237446091 8.078500401594486 0.747099026832926 64
2.780644302668147 8.025491306956940 0.743089862666534 60
2.789462640944780 7.965454918067245 0.738383452558160 60
2.799958368651965 7.906838516382082 0.733851353935282 56
2.808037959092034 7.846860931046879 0.729144943826908 60
2.821176833701053 7.797666936624499 0.725484402631507 61
2.834006658638950 7.748477306661713 0.721823861436105 61
2.845836721377108 7.697424838124002 0.717989008755208 61
2.813407392046328 7.528805432200605 0.703172532488106 66
2.866420187913874 7.589766822568645 0.709796368936928 61
2.882030967103256 7.543342311307322 0.706484450712517 66
2.891122709653831 7.488627832797727 0.702300975060629 61
2.902188977977320 7.443729806658095 0.698989056836218 57
2.909169220729906 7.385356320337349 0.694456958213340 57
2.913025969683356 7.323831532322414 0.689576236619471 57
2.925202508969863 7.280341220638228 0.686438629880556 57
2.936874940801081 7.232650800446252 0.682952400170649 57
2.946983222535069 7.185487569350895 0.679466170460743 61
2.954790158670488 7.137017435152958 0.675805629265341 60
2.922043425052683 6.988795616073814 0.662732267853193 56
2.949520936630136 6.985895184198371 0.663429513795174 56
2.981701976475288 6.993884664303383 0.665172628650127 56
2.993130365725152 6.949970952711749 0.662035021911211 56
2.998304934492580 6.895629257934454 0.657851546259324 54
3.003543782006302 6.845509689869121 0.654016693578427 54
3.012896897839461 6.802193226989682 0.650879086839511 54
3.025682197002832 6.770336639968508 0.648787349013567 54
3.036188441705477 6.730675289935924 0.645998365245642 50
3.042667098828321 6.679612784348967 0.642163512564745 58
3.049320001842575 6.632746252852431 0.638677282854839 52
3.056209959418706 6.590063277695623 0.635539676115923 52
3.065682304372998 6.550482315828918 0.632750692347998 52
3.074915726247420 6.510915874299036 0.629961708580073 48
3.076196381359920 6.455177732393095 0.625603921442690 45
3.084032767854580 6.413875313522851 0.622640626189270 48
3.095097085293438 6.379767504930859 0.620374576877831 56
3.104209190455992 6.342081835025692 0.617759904595401 50
3.113978220219883 6.306197071374781 0.615319543798467 50
3.114243718321925 6.257142201949808 0.611484691117570 50
3.120868663127927 6.215963682188117 0.608521395864149 54
3.129044630375600 6.178370395455106 0.605906723581720 50
3.141528260730602 6.149667513038508 0.604163608726766 54
3.150199455376723 6.113868539987180 0.601723247929832 54
3.153146666580730 6.067476787682188 0.598237018219926 49
3.157658440190156 6.024668776418404 0.595099411481010 52
3.167496394456809 5.992472318675267 0.593007673655066 49
3.173399339292907 5.953248065676690 0.590218689887141 52
3.186613972521189 5.928095263571483 0.588824198003179 52
3.186399277199629 5.878400387190472 0.584989345322282 56
3.193521304533892 5.842765985226229 0.582548984525347 56
3.202356883060580 5.810643662991965 0.580457246699403 54
3.211975012434241 5.780272674862069 0.578539820358955 50
3.219443141480361 5.748729378473045 0.576448082533011 50
3.221857792942274 5.706227428030002 0.573310475794095 50
3.226972075990664 5.668973586164491 0.570695803511666 54
3.238807434475302 5.643850318618177 0.569301311627703 54
3.245518315791685 5.610090718798640 0.567035262316264 54
3.253036846931301 5.578074406696608 0.564943524490320 54
3.255322977058305 5.537486301290786 0.561980229236900 54
3.259397005498061 5.500378653714969 0.559365556954470 48
3.267338552331613 5.470152316537675 0.557448130614022 52
3.278191870676696 5.445058531355222 0.556053638730059 52
3.281674724999703 5.408032572915543 0.553438966447629 55
3.288057835724664 5.376148054362049 0.551347228621686 52
3.294258489138160 5.344285117073368 0.549255490795742 52
3.300276914548310 5.312444645804368 0.547163752969798 55
3.305191651495972 5.281204469170679 0.545072015143854 52
3.315103368626575 5.256153384940620 0.543677523259892 52
3.315261824834302 5.215964259504440 0.540714228006471 50
3.321627999935652 5.185904881171457 0.538796801666023 53
3.329985786099385 5.159212802571951 0.537227998296565 53
3.338197818254041 5.132525747923141 0.535659194927107 53
3.344079988366877 5.102511612516936 0.533741768586659 53
3.345401710161967 5.065868869721839 0.531127096304229 56
3.349819754315388 5.034255575860065 0.529035358478285 56
3.358496072831304 5.009292888689610 0.527640866594323 53
3.362824078583587 4.979965168639844 0.525723440253874 53
3.366737894022165 4.948429022747282 0.523631702427930 53
3.370472684898377 4.916926473486958 0.521539964601986 51
3.375160958696326 4.887097801417804 0.519622538261538 54
3.385371910090536 4.865473796905838 0.518576669348566 54
3.392042180216325 4.838943760176286 0.517007865979108 54
3.395120621425885 4.807544211646573 0.514916128153164 51
3.395711344175468 4.772935475670154 0.512475767356230 51
3.401905336913917 4.746478500196375 0.510906963986772 57
3.409122437867700 4.721651961379478 0.509512472102810 48
3.410348077467165 4.688776712222642 0.507246422791371 51
3.421983952968387 4.670415158961789 0.506549176849389 51
3.427617447261410 4.644014368800903 0.504980373479931 51
3.427164707860442 4.609636818757896 0.502540012682997 51
3.437262846509292 4.589671980110166 0.501668455255520 54
3.438864256286275 4.558558953248158 0.499576717429577 54
3.446731169932769 4.537610740829495 0.498530848516605 57
3.449231890972646 4.508145790811535 0.496613422176156 63
3.448355486910193 4.476164553592519 0.494347372864717 52
3.456630662907210 4.454655776426345 0.493301503951745 55
3.463890115477998 4.428795407260576 0.491907012067783 52
3.474396673324769 4.410416842210315 0.491209766125801 55
3.470905467713986 4.377623065386926 0.488769405328867 55
3.473732249538014 4.349911913005456 0.487026290473914 57
3.485905199145336 4.332493903879761 0.486503356017428 60
3.490972054329426 4.307915912112274 0.485108864133465 63
3.493902762295944 4.282421802818718 0.483540060764008 63
3.498710725706024 4.257884792739109 0.482145568880045 60
3.496505697142695 4.223546711377373 0.479705208083111 63
3.508675560494786 4.208255348181267 0.479356585112120 63
3.508520900846366 4.179810634226820 0.477439158771671 60
3.518670969900327 4.160837866840305 0.476741912829690 57
3.515087852752913 4.127294443720757 0.474301552032756 57
3.522407207618707 4.105310770466787 0.473255683119784 55
3.524869966205002 4.082160547743248 0.471861191235821 57
3.534577557269786 4.063200958394734 0.471163945293840 60
3.540861906979979 4.041846354076077 0.470118076380868 57
3.543786873307796 4.015396888893032 0.468549273011410 57
3.543153510419271 3.989347216313818 0.466806158156457 57
3.552437357810556 3.970394854518402 0.466108912214476 60
3.554227820240069 3.947369897712703 0.464714420330513 60
3.563317434845311 3.928413537345567 0.464017174388532 62
3.564251991898758 3.900618724270303 0.462274059533579 62
3.563681483335612 3.871404145217337 0.460356633193130 65
3.568383909241119 3.853504086077723 0.459485075765654 62
3.577047497225847 3.834571805273177 0.458787829823673 60
3.585620313972087 3.815627861963172 0.458090583881691 62
3.583144761419319 3.785097445391482 0.455998846055748 57
3.584741648480658 3.764349569170106 0.454778665657280 52
3.594376792303819 3.746872189656185 0.454255731200794 54
3.599128238291952 3.725704865532766 0.453209862287822 54
3.609980408876590 3.709632615967736 0.452861239316832 57
3.608319642555863 3.683408448017613 0.451118124461879 59
3.607801198933756 3.655977107383595 0.449375009606926 59
3.621309171450664 3.645406601830947 0.449549321092421 61
3.622739329558285 3.621474975631991 0.448154829208458 61
3.625460661816540 3.598981579462983 0.446934648809991 66
3.625231468828324 3.573716001745505 0.445365845440533 66
3.629944866446166 3.554704642369728 0.444494288013057 64
3.638045891092343 3.537845040632400 0.443971353556571 64
3.648121412275606 3.521719613229314 0.443622730585580 66
3.651762673699575 3.500691231240847 0.442576861672608 61
3.652644233187808 3.479581926849047 0.441356681274141 60
3.653188941832084 3.455857032225550 0.439962189390178 56
3.654211638376933 3.431533137921688 0.438567697506216 56
3.661796237593503 3.414680233918071 0.438044763049730 58
3.665791394947693 3.395748671061127 0.437173205622253 56
3.665891583529136 3.372141131456814 0.435778713738291 54
3.666456150823452 3.347934533692808 0.434384221854328 56
3.676644314713710 3.333777487598841 0.434209910368833 58
3.682336434963051 3.315590618506022 0.433512664426852 58
3.687946458086639 3.297404697001565 0.432815418484870 63
3.686943375794137 3.274572419076810 0.431420926600908 65
3.684902754324025 3.249821971020664 0.429852123231450 63
3.700720923534176 3.240877343534688 0.430375057687936 65
3.704493914533795 3.221402734903864 0.429503500260459 63
3.713648328006762 3.207798083352257 0.429329188774964 67
3.706675271163984 3.179250005055907 0.427237450949020 63
3.704649408873640 3.154018858504176 0.425668647579563 59
3.715636419273753 3.141068003439963 0.425668647579563 59
3.721454711234866 3.124885590680224 0.425145713123077 61
3.724688551808438 3.105496841543386 0.424274155695600 59
3.722231282104724 3.080391934094728 0.422705352326142 59
3.720646255983524 3.057260963135019 0.421310860442180 57
3.732307592834569 3.046165833029208 0.421485171927675 59
3.735178259406007 3.026847131547577 0.420613614500198 57
3.748825789276109 3.016288447128624 0.420962237471189 61
3.746878488766660 2.993235790458299 0.419567745587226 59
3.733889147554222 2.961566809720573 0.416953073304797 53
3.741073591283675 2.946049747808400 0.416604450333806 53
3.754473624098024 2.935427386363684 0.416953073304797 48
3.764697304320387 2.922303944066137 0.416953073304797 36
3.746468862044624 2.887253335847224 0.413815466565881 18
3.764436235991800 2.880211536898535 0.414687023993358 8
3.774467116235443 2.867053654989531 0.414687023993358 4
3.797178200007133 2.863457680765655 0.416081515877320 2
nan nan nan 0
nan nan nan 0
nan nan nan 0
nan nan nan 0
nan nan nan 0
nan nan nan 0
nan nan nan 0
nan nan nan 0
nan nan nan 0
nan nan nan 0
nan nan nan 0
nan nan nan 0
nan nan nan 0
nan nan nan 0
nan nan nan 0
nan nan nan 0
nan nan nan 0
nan nan nan 0
nan nan nan 0
nan nan nan 0
nan nan nan 0
0.736611682673339 0.471626439977323 0.076522742132444 4
0.798616421636626 0.507795539207534 0.082797955610275 2
nan nan nan 0
nan nan nan 0
nan nan nan 0
nan nan nan 0
nan nan nan 0
nan nan nan 0
nan nan nan 0
nan nan nan 0
nan nan nan 0
nan nan nan 0
nan nan nan 0
nan nan nan 0
nan nan nan 0
nan nan nan 0
nan nan nan 0
nan nan nan 0
nan nan nan 0
nan nan nan 0
nan nan nan 0
nan nan nan 0
nan nan nan 0
3.979165256540977 2.120215963648217 0.394466891675901 1
3.937216639824349 2.080251847053879 0.389586170082032 7
3.926805522859484 2.057249656738916 0.387843055227079 19
3.925122375132454 2.038937811735635 0.386971497799602 28
3.926901878124653 2.022487366455255 0.386448563343116 38
3.937486636336869 2.010579748562105 0.386797186314107 45
3.944480880865573 1.996823106122683 0.386797186314107 49
3.944304166225369 1.979467473928741 0.386099940372126 52
3.940486770002048 1.960362562765254 0.385054071459154 52
3.947305705562241 1.946595753845289 0.385054071459154 52
3.957656514157882 1.934555163098139 0.385402694430144 50
3.960799204159106 1.918991148073727 0.385054071459154 54
3.956365635930931 1.900669528140567 0.384008202546182 52
3.962976107175848 1.886847655305168 0.384008202546182 54
3.965934533848111 1.871302380758159 0.383659579575191 54
3.968832765775047 1.855759463900847 0.383310956604201 52
3.978901935837339 1.843569557133677 0.383659579575191 50
3.970827490885751 1.823019045528157 0.382265087691229 54
3.966285381880173 1.804197377427909 0.381219218778257 52
3.976191926396049 1.791978723815018 0.381567841749247 56
3.982112479534890 1.778783343320741 0.381567841749247 54
3.988297331737686 1.764872339801629 0.381567841749247 52
3.980139802917287 1.743846143811359 0.380173349865285 54
3.975236543777456 1.725183113238425 0.379127480952313 54
3.992217053567404 1.716017255524492 0.380173349865285 54
3.994516373931708 1.700510545463082 0.379824726894294 54
3.992790444021003 1.684157600499823 0.379127480952313 54
3.991291095938501 1.667138250029693 0.378430235010332 54
3.989721671111998 1.650149925318539 0.377732989068351 56
3.995457462534401 1.636213144442881 0.377732989068351 54
4.005120704143195 1.623054663244973 0.378081612039341 54
4.010761821634516 1.609064294786480 0.378081612039341 52
4.004966142467863 1.591341021306003 0.377035743126369 54
4.010496559631711 1.577351385578801 0.377035743126369 52
4.012264769328288 1.561896998625731 0.376687120155379 54
4.021410727263612 1.549314626231320 0.377035743126369 50
4.030517686719852 1.536687416901612 0.377384366097360 52
4.020944073439961 1.516982654072567 0.375989874213397 52
4.022481672475979 1.501544153516604 0.375641251242407 50
4.023960530086366 1.486113419450947 0.375292628271416 47
4.032351749784109 1.474833216461468 0.375641251242407 49
4.043095927255086 1.462782221798864 0.376164185698893 49
4.035046106306918 1.443961188144147 0.374944005300425 47
4.030670763790990 1.426543724413275 0.374072447872949 43
4.043147910082529 1.415098107479880 0.374769693814930 45
4.042414432204036 1.399021415639600 0.374246759358444 45
4.057183016473936 1.386711296285982 0.375118316785921 45
4.045010911176095 1.366800457086794 0.373549513416463 48
4.049284873075445 1.354085956543641 0.373549513416463 47
4.055878579919113 1.340568330095104 0.373723824901958 47
4.051294698835276 1.322602150999435 0.372852267474482 50
4.063471401004220 1.310899284555124 0.373549513416463 47
4.060203444027984 1.294995436185952 0.372852267474482 48
4.068499645685967 1.282012374520571 0.373200890445472 50
4.065119560758575 1.266143748383110 0.372503644503491 50
4.080940332332041 1.255461176210551 0.373549513416463 52
4.081701524089315 1.239337631002010 0.373200890445472 52
4.080277386785032 1.223365680412271 0.372677955988986 53
4.071360061945817 1.204446083038134 0.371457775590519 52
4.079364561184041 1.191344106018267 0.371806398561510 48
4.092658373072316 1.181285140193059 0.372677955988986 52
4.092924567469323 1.165900232773128 0.372329333017996 53
4.085861650604067 1.146945143154274 0.371283464105024 53
4.093680569498758 1.133739382205562 0.371632087076014 53
4.101065657411968 1.121924607515618 0.371980710047005 52
4.095338932875212 1.105007249622618 0.371109152619528 52
4.112648959960852 1.094291277451894 0.372329333017996 55
4.104880649608899 1.076895278914621 0.371283464105024 53
4.103198057071208 1.059631225522258 0.370760529648538 52
4.112664347217556 1.046776268553968 0.371283464105024 53
4.115932591274983 1.033850808077541 0.371283464105024 53
4.127252509289858 1.021391734797917 0.371980710047005 53
4.117242758007873 1.003675595641570 0.370760529648538 52
4.118783816475815 0.988832507578778 0.370586218163042 53
4.124319434952848 0.974187778677685 0.370760529648538 52
4.131576094485720 0.960687760053259 0.371109152619528 50
4.138623340827920 0.947871280136549 0.371457775590519 50
4.176892419401140 0.941303360392788 0.374595382329435 21
4.446811888701569 0.985020233001716 0.398476055842293 24
nan nan nan 0
nan nan nan 0
3.285147783074475 0.691690413735102 0.293714853059608 3
3.271815503131634 0.677560417903549 0.292320361175645 1
nan nan nan 0
nan nan nan 0
3.270910905440506 0.641727206320396 0.291623115233664 1
3.261282694917784 0.628614387164726 0.290577246320692 1
3.326102946913862 0.629074936582686 0.296155213856542 1
4.515556431882223 0.836908916419498 0.401787974066704 3
4.514529714627402 0.820429096959685 0.401439351095713 5
4.485842290181409 0.799858007554737 0.398650367327788 5
3.283532788900580 0.573658768673671 0.291623115233664 1
3.285515227287900 0.562193605371631 0.291623115233664 1
4.533272419999827 0.759423020056581 0.402136597037695 3
4.496572790007257 0.737147901574557 0.398650367327788 3
4.522725614961950 0.725232912190286 0.400742105153732 5
3.218247233530612 0.504539547473415 0.284999278784842 1
4.504045493755192 0.690020343767461 0.398650367327788 3
4.439431262200776 0.664269601377273 0.392723776820948 1
3.396843604805789 0.496151384231038 0.300338689508430 1
nan nan nan 0
3.301632962451057 0.458139432834664 0.291623115233664 1
3.259774715616822 0.440738833508155 0.287788262552767 4
3.241539879299639 0.426756821138944 0.286045147697814 3
4.523613290299286 0.579488227290451 0.398998990298779 5
4.549333861866241 0.566649486975480 0.401090728124723 5
3.309055801546861 0.401025760906297 0.291623115233664 1
3.211498379296048 0.377832612472041 0.282907540958898 1
4.570854906338058 0.520783134212187 0.402485220008685 6
4.560762787903024 0.503512899408634 0.401439351095713 5
4.570417023694743 0.488436676391352 0.402136597037695 5
4.576057812016243 0.472889573536653 0.402485220008685 6
4.553810766448358 0.455333463304196 0.400393482182742 5
4.567271534300423 0.440582772428646 0.401439351095713 5
4.588545516693675 0.427282038448052 0.403182465950667 4
4.582071295507485 0.410551203336340 0.402485220008685 6
3.205852967010228 0.275965862222580 0.281513049074936 1
3.186940409942701 0.263134200325229 0.279769934219983 1
3.223590974850310 0.254834358225539 0.282907540958898 1
3.160885551330078 0.238777802774327 0.277329573423048 1
3.157764953576716 0.226905379066500 0.276980950452058 1
3.194317297105174 0.218326817711300 0.280118557190973 1
3.139389946331118 0.203565465467310 0.275237835597104 3
3.116217573023213 0.191141954718737 0.273146097771161 1
3.112856197577582 0.180576385348377 0.272797474800170 3
3.085615456219652 0.168191222262738 0.270357114003236 4
nan nan nan 0
nan nan nan 0
3.079245681634221 0.135519694857195 0.269659868061254 90
3.075718461259215 0.124608989792765 0.269311245090264 60
3.076134689476379 0.113871969632534 0.269311245090264 37
3.086469790124813 0.103467327551033 0.270182802517740 22
nan nan nan 0
4.648600556014836 0.123351684848251 0.406843007146068 8
nan nan nan 0
4.699148641875128 0.091869191483361 0.411200794283451 72
4.693464298712878 0.075369570488199 0.410677859826965 62
4.679753168821665 0.058810608402069 0.409457679428498 72
4.679914833855817 0.044108464191412 0.409457679428498 70
4.691994415385159 0.027843182173384 0.410503548341470 70
4.700032554786412 0.011484368880294 0.411200794283451 68
4.704028785115645 -0.004926049225203 0.411549417254442 70
4.696005731228643 -0.022949195967923 0.410852171312461 70
4.699881652870946 -0.039374557619441 0.411200794283451 70
4.703700074885758 -0.055827257475645 0.411549417254442 68
4.705468699242662 -0.072276494381338 0.411723728739937 68
4.711194561094824 -0.087169353524969 0.412246663196423 68
4.706877765767560 -0.103526337622005 0.411898040225432 70
4.706487715500539 -0.119955776438490 0.411898040225432 68
4.708031871411079 -0.136441469989560 0.412072351710928 68
4.719474956724596 -0.153262743802627 0.413118220623900 66
4.730857827931148 -0.170165563028096 0.414164089536872 68
4.722271658647989 -0.186364028658032 0.413466843594890 66
4.723582910362931 -0.202932214670391 0.413641155080386 68
4.732796980219836 -0.219881684529169 0.414512712507862 66
4.732000616087740 -0.236400889411672 0.414512712507862 64
4.743083885680056 -0.253555356499695 0.415558581420834 66
4.746148246292189 -0.270336866802433 0.415907204391825 70
4.741198164127842 -0.286661880755512 0.415558581420834 66
4.756075248609031 -0.304227487630930 0.416953073304797 68
4.758960060259507 -0.321095685334120 0.417301696275787 70
4.765759791555097 -0.338269853078209 0.417998942217769 68
4.760576204987048 -0.354607398885279 0.417650319246778 70
4.753350322589172 -0.370757947452818 0.417127384790292 65
4.771885209296497 -0.388966648730045 0.418870499645245 65
4.770498390355952 -0.405621266871230 0.418870499645245 65
4.773096382864934 -0.421789339735556 0.419219122616236 65
4.771594983972697 -0.438447985694404 0.419219122616236 65
4.773842926871424 -0.457146165271595 0.419567745587226 68
4.784113954114229 -0.474988274956975 0.420613614500198 63
4.786562154886338 -0.490421789924860 0.420962237471189 63
4.792746271523741 -0.507966984008812 0.421659483413170 63
4.783021747571782 -0.523826075027415 0.420962237471189 63
4.789083225939747 -0.541414014475322 0.421659483413170 61
4.791024565974798 -0.559425389459630 0.422008106384161 65
4.792998870032924 -0.576621734789400 0.422356729355152 63
4.802924324611308 -0.593979942284942 0.423402598268123 65
4.800821686626564 -0.610741658146786 0.423402598268123 65
4.798660552144615 -0.627495932314262 0.423402598268123 63
4.808288887261476 -0.645833937901546 0.424448467181095 63
4.813900087462986 -0.663702546730778 0.425145713123077 65
4.821417789650971 -0.681897193739500 0.426017270550553 68
4.817036379590480 -0.698437035040788 0.425842959065058 65
4.822452076183153 -0.716418471585804 0.426540205007039 65
4.825831109954047 -0.734146561056610 0.427063139463525 70
4.825207728611066 -0.751293908040395 0.427237450949020 68
4.852069632199662 -0.772833382068385 0.429852123231450 74
4.831644049938931 -0.786883201382331 0.428283319861992 65
4.828867878949422 -0.803743992561367 0.428283319861992 68
4.843710645808301 -0.823600832829078 0.429852123231450 74
4.848805170726392 -0.841020604409534 0.430549369173431 74
4.853687434424075 -0.859330347343411 0.431246615115413 74
4.854426414475004 -0.877823294808529 0.431595238086403 74
4.847413979009178 -0.894040308407798 0.431246615115413 74
4.859928218933865 -0.913901186860307 0.432641106999375 72
4.862578816595539 -0.931985067254810 0.433164041455861 72
4.884883236846457 -0.953064739894866 0.435430090767300 72
4.871755789667630 -0.968168583946750 0.434558533339824 72
4.880063409143983 -0.987539329582369 0.435604402252796 67
4.884392183269685 -1.006175865242515 0.436301648194777 69
4.876950216499915 -1.022401851318581 0.435953025223786 72
4.892837268359997 -1.043575370688509 0.437696140078739 69
4.893058898969646 -1.061493003640937 0.438044763049730 67
4.897106236047256 -1.080283278780612 0.438742008991711 65
4.897193713460001 -1.098242755391742 0.439090631962702 65
4.908870844226422 -1.118872597918805 0.440485123846664 63
4.906876354704255 -1.136450483609838 0.440659435332160 65
4.902879507845378 -1.153571754856461 0.440659435332160 63
4.902698571992005 -1.171605140266658 0.441008058303150 63
4.912132418670963 -1.192000539570608 0.442228238701618 67
4.915679815436534 -1.211046228334438 0.442925484643599 68
4.926885486752488 -1.232064592010597 0.444319976527561 71
4.918692420559761 -1.248274933317621 0.443971353556571 68
4.918164058407848 -1.266430437506848 0.444319976527561 68
4.933215284638472 -1.287764991726220 0.446063091382515 76
4.936394178788531 -1.307017104944083 0.446760337324496 71
4.943347144119033 -1.327340428972690 0.447806206237468 68
4.934838915113462 -1.343541064894975 0.447457583266477 68
4.935880745362986 -1.362348972655537 0.447980517722963 66
4.938770045244118 -1.381717302704153 0.448677763664944 66
4.958835635144687 -1.406013805464766 0.450943812976383 64
4.965387038935464 -1.426615884194926 0.451989681889355 66
4.948899043459718 -1.440598464243874 0.450943812976383 61
4.955306459123111 -1.461245777971089 0.451989681889355 61
4.959720837257809 -1.481385133716116 0.452861239316832 59
4.962147827558004 -1.500996215155491 0.453558485258813 59
4.970213325210595 -1.522392809744593 0.454778665657280 61
4.970577835549802 -1.541503303167038 0.455301600113766 59
4.967067608490085 -1.559441267454921 0.455475911599262 64
4.982480805656314 -1.583407829864050 0.457393337939710 65
4.990200179280634 -1.605060687795018 0.458613518338177 67
4.994039831352424 -1.625553329796991 0.459485075765654 67
4.990227554072542 -1.643599162292034 0.459659387251149 67
