# This PCD file was generated using the MATLABÂ® pcwrite function
# from Computer Vision ToolboxÂ®.
# .PCD v.7 - Point Cloud Data file format
VERSION .7
FIELDS x y z intensity
SIZE 8 8 8 1
TYPE F F F U
COUNT 1 1 1 1
WIDTH 950
HEIGHT 1
VIEWPOINT 0 0 0 1 0 0 0
POINTS 950
DATA ascii
nan nan nan 0
nan nan nan 0
nan nan nan 0
nan nan nan 0
nan nan nan 0
nan nan nan 0
nan nan nan 0
nan nan nan 0
nan nan nan 0
nan nan nan 0
nan nan nan 0
nan nan nan 0
nan nan nan 0
nan nan nan 0
nan nan nan 0
nan nan nan 0
nan nan nan 0
nan nan nan 0
nan nan nan 0
nan nan nan 0
nan nan nan 0
nan nan nan 0
nan nan nan 0
nan nan nan 0
nan nan nan 0
nan nan nan 0
nan nan nan 0
nan nan nan 0
nan nan nan 0
nan nan nan 0
nan nan nan 0
nan nan nan 0
nan nan nan 0
nan nan nan 0
nan nan nan 0
nan nan nan 0
nan nan nan 0
nan nan nan 0
nan nan nan 0
nan nan nan 0
nan nan nan 0
nan nan nan 0
nan nan nan 0
nan nan nan 0
nan nan nan 0
nan nan nan 0
nan nan nan 0
nan nan nan 0
nan nan nan 0
nan nan nan 0
nan nan nan 0
nan nan nan 0
nan nan nan 0
nan nan nan 0
nan nan nan 0
-1.779916538595179 -1.309392792387884 0.038569818226397 1
-1.703730793310375 -1.244204699561876 0.036824577582668 1
-1.678921182880575 -1.217123449037232 0.036196290950926 1
-1.663891184663408 -1.196948662588867 0.035777433196431 2
-1.645275930899764 -1.174864168408027 0.035288765816187 3
-1.650794094054790 -1.170558455322551 0.035323670629062 4
-1.653234801297545 -1.163637999889072 0.035288765816187 5
-1.635776760600685 -1.143257150437898 0.034835003248818 8
-1.636471419890486 -1.135260619062409 0.034765193623069 9
-1.635679735582166 -1.125853655582537 0.034660479184445 12
-1.644553206631616 -1.123521309041365 0.034765193623069 17
-1.641844667297745 -1.113284850370918 0.034625574371570 18
-1.637425790479066 -1.101964566493286 0.034451050307198 24
-1.634610869587801 -1.091799446200777 0.034311431055699 32
-1.641745495653214 -1.088296677285926 0.034381240681449 35
-1.640334186378403 -1.079548459656642 0.034276526242825 38
-1.642418291624002 -1.072722548798497 0.034241621429950 41
-1.631050466795826 -1.057194069692947 0.033927478114079 40
-1.639776291365655 -1.054739552754685 0.034032192552703 44
-1.641396543923041 -1.048506351923455 0.033997287739828 47
-1.639979635774452 -1.039558602350111 0.033892573301205 46
-1.640213008597032 -1.031698263586029 0.033822763675455 46
-1.638715137416564 -1.022790199189195 0.033718049236832 47
-1.638875201839026 -1.014958062566215 0.033648239611083 47
-1.645815567695351 -1.011324977584996 0.033718049236832 49
-1.644213563155074 -1.002450947658108 0.033613334798208 46
-1.645991742734934 -0.995670463500919 0.033578429985333 49
-1.640884190655376 -0.984773705947958 0.033403905920961 45
-1.637438919400722 -0.974947830637193 0.033264286669462 44
-1.644106113884710 -0.971547180692270 0.033334096295212 44
-1.652662783152024 -0.968836194163345 0.033438810733835 50
-1.654305946644252 -0.962056138677306 0.033403905920961 44
-1.636868439688139 -0.944284754589618 0.032985048166466 46
-1.642054208489465 -0.939271877087395 0.033019952979340 47
-1.647062117180336 -0.934521138619007 0.033054857792215 44
-1.650152044845749 -0.929054145498383 0.033054857792215 44
-1.649893158350426 -0.921338457151286 0.032985048166466 46
-1.639104687630064 -0.907822754178043 0.032705809663469 44
-1.644016277023139 -0.903058429171975 0.032740714476344 47
-1.647158523297200 -0.897314239686948 0.032740714476344 47
-1.648521338377618 -0.890608627247640 0.032705809663469 46
-1.647940632184576 -0.883247736649598 0.032636000037720 46
-1.643950542104370 -0.873736001519078 0.032496380786222 44
-1.643452323912511 -0.866127575192790 0.032426571160473 44
-1.642921063121721 -0.858533295996130 0.032356761534724 44
-1.649458936192323 -0.854633099814221 0.032426571160473 44
-1.655989556018636 -0.850697699299227 0.032496380786222 44
-1.648257555928770 -0.839466843931399 0.032286951908975 44
-1.651177800306493 -0.833708237041855 0.032286951908975 46
-1.648713348547786 -0.825254262583204 0.032182237470351 47
-1.653375284815503 -0.820382973558300 0.032217142283225 46
-1.652498195122489 -0.813129918352489 0.032147332657476 46
-1.648137223393341 -0.803850234277386 0.032007713405978 46
-1.649132780038291 -0.797221934792218 0.031972808593103 47
-1.655512337523748 -0.793188609931040 0.032042618218853 47
-1.661883787361943 -0.789120440288712 0.032112427844602 47
-1.657390693035487 -0.779908860156120 0.031972808593103 49
-1.649228948587008 -0.769048088777040 0.031763379715856 49
-1.655533936597841 -0.764964072900942 0.031833189341605 47
-1.650921292418357 -0.755850781473861 0.031693570090107 49
-1.660834005715121 -0.753387717922590 0.031833189341605 49
-1.665016319405124 -0.748986702611986 0.031868094154480 50
-1.653008398115758 -0.736658251808399 0.031588855651483 49
-1.659228462259739 -0.732498900299548 0.031658665277232 52
-1.658110918473634 -0.725100218064476 0.031588855651483 49
-1.667971698250110 -0.722487174776809 0.031728474902981 50
-1.659457193629465 -0.711930033254005 0.031519046025734 48
-1.656533622648168 -0.703498043214813 0.031414331587110 78
-1.658979196918612 -0.697711375829728 0.031414331587110 38
nan nan nan 0
-1.673053060568297 -0.689924344201365 0.031588855651483 1
nan nan nan 0
nan nan nan 0
nan nan nan 0
-1.682290072117294 -0.667084895237645 0.031588855651483 1
nan nan nan 0
-3.226994883336007 -1.252316820376840 0.060420231085876 1
-5.553585331576648 -2.132933857780985 0.103841818301837 4
-5.564735311084616 -2.114956096742777 0.103911627927586 14
-5.567974984977070 -2.095082681767326 0.103841818301837 4
-3.360144840157658 -1.250961971790067 0.062584329484099 5
-3.345511320592071 -1.232897714145386 0.062235281355353 6
-3.349794554742947 -1.221212189084731 0.062235281355353 5
-5.580931695931902 -2.013661390951340 0.103562579798840 11
-5.587926684970267 -1.994168035914382 0.103562579798840 18
-5.600510668368617 -1.976646995696193 0.103667294237464 18
-5.592272289777307 -1.951813911959933 0.103388055734468 8
-3.347912560329213 -1.154739891994337 0.061816423600858 3
-3.355708303093962 -1.144337309836251 0.061886233226607 7
-3.351905402038260 -1.130646510386574 0.061746613975109 10
-3.355831673925096 -1.118939288765794 0.061746613975109 23
-3.352312941179896 -1.104129758044281 0.061606994723611 46
-3.346639152253144 -1.089326597561568 0.061432470659238 42
-3.344522463885853 -1.076384873026302 0.061327756220614 43
-3.346353703894536 -1.064097775017706 0.061292851407740 42
-3.346232167076751 -1.051211692845827 0.061223041781991 43
-3.353700899165152 -1.040710077449604 0.061292851407740 41
-3.343929856312720 -1.024895211494755 0.061048517717618 44
-3.341745205617967 -1.011478538364123 0.060943803278994 46
-3.348912723195926 -1.001537274122515 0.061013612904743 46
-3.352388337976901 -0.989841285478021 0.061013612904743 48
-3.355823104963927 -0.978133235929839 0.061013612904743 46
-3.343842991539753 -0.961990324117924 0.060734374401747 48
-3.349104259597503 -0.950858429551738 0.060769279214621 48
-3.348551847572083 -0.938083204472409 0.060699469588872 49
-3.359515700471088 -0.928519716299728 0.060839088840370 48
-3.358877810285362 -0.915735196591433 0.060769279214621 48
-3.346605018963144 -0.899850988789476 0.060490040711625 49
-3.349725696427637 -0.888163675043677 0.060490040711625 49
-3.348936192634482 -0.875454038392875 0.060420231085876 49
-3.351971694647238 -0.863758735966968 0.060420231085876 49
-3.354817591557789 -0.852638448024674 0.060420231085876 50
-3.346134687119739 -0.838007944444132 0.060210802208628 50
-3.345156550597430 -0.825364593986351 0.060140992582879 50
-3.348017230847053 -0.813682790135310 0.060140992582879 49
-3.354726654713681 -0.802921995869432 0.060210802208628 49
-3.361401701357435 -0.792124264208726 0.060280611834377 50
-3.346614511484849 -0.776319093010370 0.059966468518506 52
-3.349303982104683 -0.764632498728070 0.059966468518506 52
-3.353903720884131 -0.753374851078749 0.060001373331381 50
-3.366276038294616 -0.743820203662227 0.060175897395754 52
-3.356872549968028 -0.730689199266399 0.059966468518506 52
-3.351581020714320 -0.717293112816751 0.059826849267008 52
-3.350396500219269 -0.703596750654656 0.059757039641259 52
-3.364582679238465 -0.694322271875194 0.059966468518506 53
-3.366747349862602 -0.683748714694635 0.059966468518506 53
-3.365191432367661 -0.671210111494733 0.059896658892757 53
-3.355854010714095 -0.656567813212921 0.059687230015510 52
-3.356161599037235 -0.644472591539588 0.059652325202635 56
-3.362321022136726 -0.633493970538778 0.059722134828384 56
-3.362545443507081 -0.621390034457302 0.059687230015510 53
-3.360758699096783 -0.608935735222829 0.059617420389760 55
-3.356957137141125 -0.596151840748341 0.059512705951137 56
-3.362855667134816 -0.585702728230609 0.059582515576886 59
-3.355023542658864 -0.572279406190032 0.059407991512513 55
-3.363015846428166 -0.560965822937032 0.059512705951137 59
-3.361006334404831 -0.548579039124766 0.059442896325388 59
-3.358951371874286 -0.536213127365988 0.059373086699639 59
-3.360802641104964 -0.524484932212218 0.059373086699639 59
-3.362523416983146 -0.513337225238679 0.059373086699639 56
-3.364294812651568 -0.501596700688419 0.059373086699639 59
-3.365939669217705 -0.490437539103978 0.059373086699639 56
-3.355752339906535 -0.476996745067403 0.059163657822391 59
-3.361358455172977 -0.465829080426728 0.059233467448140 59
-3.364945734834865 -0.454360497475495 0.059268372261015 53
-3.366511248547466 -0.442611876764409 0.059268372261015 55
-3.366052211321436 -0.430604118642802 0.059233467448140 56
-3.355628364794955 -0.417370866561527 0.059024038570893 59
-3.361035325723464 -0.406134776083365 0.059093848196642 56
-3.354488206241011 -0.393468261845156 0.058954228945144 56
-3.371736274406673 -0.383564717074288 0.059233467448140 60
-3.369014443612967 -0.371942657301213 0.059163657822391 60
-3.358362002567380 -0.358905361622114 0.058954228945144 59
-3.367550766337756 -0.348002519018621 0.059093848196642 60
-3.368745005551593 -0.336245453019831 0.059093848196642 59
-3.369784725982390 -0.325660586563832 0.059093848196642 60
-3.378865289650680 -0.314637490976359 0.059233467448140 59
-3.372028807833356 -0.301538780668878 0.059093848196642 59
-3.355129615765247 -0.288225966403224 0.058779704880771 45
-3.348095304385197 -0.276440179986891 0.058640085629273 12
-3.181587869800932 -0.251513889095848 0.055708081347809 39
nan nan nan 0
-3.177282637555577 -0.228865258779571 0.055603366909185 63
-3.174034125994453 -0.218053642570066 0.055533557283436 66
-3.166794100266573 -0.206452508209850 0.055393938031938 66
-3.175479066259451 -0.195889570328428 0.055533557283436 66
-3.168158226427170 -0.184339263183844 0.055393938031938 64
-3.164788964472146 -0.173060830841112 0.055324128406189 69
-3.165373778528849 -0.162012601417589 0.055324128406189 66
-3.173883264291016 -0.151897325023088 0.055463747657687 69
-3.178389610003946 -0.140994719881324 0.055533557283436 69
-3.174866353759256 -0.129735918169064 0.055463747657687 69
-3.171303272775344 -0.118503433341435 0.055393938031938 64
-3.171716308540389 -0.106879229826194 0.055393938031938 66
-3.178066415220929 -0.095988332721997 0.055498652470562 70
-3.180366223028346 -0.085502698412735 0.055533557283436 66
-3.180645307264184 -0.074400627643691 0.055533557283436 69
-3.174887737592103 -0.063178295863263 0.055428842844812 70
-3.185086059884351 -0.052259513188920 0.055603366909185 64
-3.181242797847899 -0.041644749444797 0.055533557283436 66
-3.189367196964849 -0.030616667667961 0.055673176534934 69
-3.193446950410906 -0.020622667266281 0.055742986160684 69
-3.181501361852635 -0.009439732267307 0.055533557283436 66
-3.181514929872396 0.001665837474058 0.055533557283436 66
-3.193487807807925 0.012819550539037 0.055742986160684 64
-3.193423603405126 0.023966825173772 0.055742986160684 66
-3.193320488143503 0.035113807780306 0.055742986160684 61
-3.169192601397933 0.045359630297189 0.055324128406189 40
-3.059049140170102 0.054464042840805 0.053404363698088 16
-2.968885484405000 0.062707683067210 0.051833647118732 14
-2.978643955792085 0.073316674457240 0.052008171183105 17
-2.918402707009184 0.082028126086567 0.050961026796868 17
-2.810168921426389 0.088804070241704 0.049076166901641 19
-2.777883349576242 0.097005824125517 0.048517689895648 27
-2.789517140928930 0.107162439127621 0.048727118772896 22
-2.793121962151519 0.117066495316601 0.048796928398645 21
-2.800686854543014 0.127178445870542 0.048936547650143 16
-2.796231240120894 0.136758523269381 0.048866738024394 16
-2.803724647699604 0.146936982507064 0.049006357275892 16
-2.819167279812732 0.157615920775791 0.049285595778889 16
-2.834569326902606 0.168404448235542 0.049564834281885 17
-2.867954765220591 0.179431374085194 0.050158216100753 22
-2.851348199191686 0.188386662373258 0.049878977597756 22
-2.834714253208257 0.197228214360136 0.049599739094760 19
-2.836002904376797 0.207267770023550 0.049634643907634 21
-2.829242695526217 0.217201648010188 0.049529929469011 22
-2.828467283571506 0.227076224762569 0.049529929469011 22
-2.825747176312505 0.235794694800779 0.049495024656136 24
-2.830883414592398 0.246176682217092 0.049599739094760 24
-2.843857777097140 0.258310882566589 0.049844072784882 21
-2.854883899010931 0.269363267984894 0.050053501662129 13
-3.393382292956730 0.330930282201702 0.059512705951137 2
-3.503622035700710 0.354031626701612 0.061467375472113 3
-3.502236827417345 0.367481926677035 0.061467375472113 6
-3.516837033387041 0.381429726502861 0.061746613975109 6
-3.523570781917818 0.393363748904350 0.061886233226607 6
-5.995447168711261 0.690515863270265 0.105342725255443 4
-5.973018920521902 0.710124850185368 0.104993677126698 9
-5.988367606733062 0.733157329352833 0.105307820442569 3
-3.382819148456054 0.425550051896877 0.059512705951137 1
-3.536000729339139 0.457363763177293 0.062235281355353 5
-3.538265099402924 0.470848342871730 0.062305090981102 6
-3.520749667632606 0.481030738611638 0.062025852478106 6
-3.475481813997455 0.487210041513860 0.061257946594865 2
-3.228320509604262 0.464057852919623 0.056929749798419 1
-3.143671255600147 0.462535198021903 0.055463747657687 3
-3.074807046369224 0.463374186380579 0.054276984019952 1
-3.001942595555148 0.463652336384539 0.053020410756467 3
-2.956851790283117 0.467261346608083 0.052252504873227 4
-2.927730532576348 0.472091552294908 0.051763837492983 16
-2.922118646126275 0.481657913299481 0.051694027867234 19
-2.942110708443327 0.495508287698578 0.052077980808854 19
-2.932480126300158 0.504419186246270 0.051938361557356 17
-2.930701509081369 0.514652379054955 0.051938361557356 17
-2.940697211150006 0.526995749781120 0.052147790434603 16
-2.948486865790699 0.540084787478050 0.052322314498976 13
-2.944617955302333 0.550006476415890 0.052287409686101 16
-2.938946457938927 0.558507868890111 0.052217600060352 17
-2.940905439097222 0.569523682630223 0.052287409686101 17
-2.946645535373929 0.581848344070573 0.052427028937600 17
-2.952438355396041 0.593707423807790 0.052566648189098 17
-2.948494184773241 0.603094070851503 0.052531743376223 16
-2.944413308750872 0.612974998830782 0.052496838563349 17
-2.946059295357401 0.624592167527274 0.052566648189098 17
-2.951680133644061 0.636558275433962 0.052706267440596 17
-2.957366386427290 0.648055066093711 0.052845886692094 16
-2.951182554178401 0.657504538085127 0.052776077066345 16
-2.937167592499650 0.665152073640287 0.052566648189098 17
-2.946520425613842 0.678091488760855 0.052776077066345 16
-2.951924211624664 0.690193724911571 0.052915696317844 16
-2.953388158783994 0.701417792556188 0.052985505943593 21
-2.966473390554933 0.715473612461399 0.053264744446589 48
-2.950361711884860 0.722494709383438 0.053020410756467 21
-2.920779568501958 0.725525415240137 0.052531743376223 13
-2.887204854018588 0.727894848528492 0.051973266370230 11
-2.865273391750337 0.733012503725876 0.051624218241485 11
-2.831728241070822 0.734971740132927 0.051065741235492 13
-2.800267125105871 0.736726215903704 0.050542169042373 14
-2.789950017112885 0.744434338935536 0.050402549790875 24
-2.798916181132713 0.757302210883325 0.050611978668122 35
-2.805897912009361 0.769712698688097 0.050786502732495 32
-2.809110086847111 0.780619372030093 0.050891217171119 34
-2.802518489361866 0.789335987599700 0.050821407545370 30
-2.799746118677978 0.799113793825826 0.050821407545370 32
-2.808465484111171 0.812215167483477 0.051030836422617 32
-2.815064332412827 0.825316191186456 0.051205360486990 34
-2.814083241383710 0.835706853971744 0.051240265299864 34
-2.795829322984388 0.840916981924179 0.050961026796868 35
-2.812006235904149 0.856497638903521 0.051310074925614 32
-2.816642905203822 0.868665455474116 0.051449694177112 32
-2.825046427873668 0.882068033296461 0.051659123054359 30
-2.820199023524898 0.890829056441339 0.051624218241485 32
-2.811358125668910 0.898841048218927 0.051519503802861 32
-2.813911187740044 0.910495891040906 0.051624218241485 30
-2.814516653412275 0.921557233788457 0.051694027867234 30
-2.819201420206809 0.932907618861739 0.051833647118732 30
-2.836786513732627 0.949726064583164 0.052217600060352 30
-2.816241366515836 0.954340922680670 0.051903456744481 30
-2.818567906456499 0.966110814981189 0.052008171183105 30
-2.826685644610287 0.979380206456137 0.052217600060352 32
-2.834572942749070 0.993208758958385 0.052427028937600 30
-2.836743365939363 1.005100737108906 0.052531743376223 30
-2.825687480700064 1.012299030299163 0.052392124124725 30
-2.829657366633129 1.024880287349075 0.052531743376223 30
-2.833573757473800 1.037501560728828 0.052671362627722 30
-2.844937906606822 1.052939001742975 0.052950601130718 30
-2.837499257647496 1.061462003436638 0.052880791504969 30
-2.833776776786496 1.071360257446273 0.052880791504969 30
-2.839359766481603 1.084813924124949 0.053055315569342 29
-2.841152252504047 1.096879158932621 0.053160030007966 27
-2.842895035979800 1.108970099416775 0.053264744446589 16
-6.185909067984484 2.437941637232797 0.116058502807935 2
nan nan nan 0
-3.512253042625619 1.411916670327461 0.066074810771555 3
-2.999642777046361 1.218028624127528 0.056510892043924 3
-3.014089855676631 1.235553839017460 0.056859940172670 4
-2.969111159189821 1.229239036177974 0.056092034289429 6
-2.955361854127535 1.236254643355523 0.055917510225056 13
-2.958396875867894 1.249675767185208 0.056057129476555 6
-2.963434033969860 1.263400462026659 0.056231653540927 6
-3.010434917593317 1.295875278949500 0.057208988301415 4
-3.031798754317724 1.317005426657893 0.057697655681659 4
-3.001544502553403 1.316336480862310 0.057208988301415 4
-2.989617295887000 1.323567720688877 0.057069369049917 4
-2.963070866056317 1.324204577207855 0.056650511295422 4
-2.925850081522880 1.319228111736668 0.056022224663680 4
-2.895746180443239 1.317836895243050 0.055533557283436 10
-2.883859721789795 1.324598285016178 0.055393938031938 27
-2.884661198429460 1.337179744779835 0.055498652470562 27
-2.887221218348493 1.350630230313993 0.055638271722060 37
-2.891530733679527 1.364968478761776 0.055812795786433 49
-2.882898060198129 1.373836778514739 0.055742986160684 40
-2.885293639945844 1.387357829004619 0.055882605412182 51
-2.880433279180378 1.397420931073570 0.055882605412182 48
-2.891702618490635 1.415379062882733 0.056196748728053 43
-2.892372643163273 1.427615718015878 0.056301463166677 49
-2.889161776071130 1.438594607710036 0.056336367979551 45
-2.880801143878799 1.446372996096657 0.056266558353802 46
-2.879302718299067 1.458227029662555 0.056336367979551 46
-2.890222124102257 1.476456160175372 0.056650511295422 43
-2.895716343988126 1.492031434777298 0.056859940172670 43
-2.892527224399223 1.502547580851736 0.056894844985544 45
-2.883722076180736 1.510779236918560 0.056825035359795 42
-6.154111696049251 3.252935611829366 0.121503653616368 9
-6.148013265260360 3.277219598226773 0.121608368054992 10
-6.160011480509194 3.309893562678845 0.122062130622361 11
-6.164244053751873 3.339949594434275 0.122376273938232 9
-3.690475822077826 2.016292622325238 0.073404821475214 4
-6.193321930093525 3.411849077850854 0.123423418324469 4
-6.176130243523025 3.430534027277989 0.123318703885845 5
-3.707543267245785 2.076323993989535 0.074172727358455 2
nan nan nan 0
-3.703384733050278 2.108092221380235 0.074382156235702 3
-3.714091161337218 2.129663375364989 0.074731204364448 4
nan nan nan 0
-3.706043954863122 2.159567679975226 0.074870823615946 1
nan nan nan 0
-3.487835877325681 2.065166104567496 0.070752055696747 2
-3.707265928548367 2.212605767447337 0.075359490996190 5
-3.279704077030312 1.972982991155182 0.066807811841921 4
-3.262537548042567 1.978198524668060 0.066598382964674 10
-3.235481933045790 1.976497136698466 0.066179525210179 10
-3.194506387559296 1.966810901511676 0.065481428952688 10
-3.174028205729333 1.969515073208427 0.065202190449691 10
-3.160352106412733 1.976341424279136 0.065062571198193 10
-3.136516568382813 1.976699262961376 0.064713523069447 10
-3.112717246200952 1.976914909541829 0.064364474940702 10
-3.078849209690740 1.970520829276936 0.063805997934709 11
-3.058508059495988 1.972585308886334 0.063526759431712 11
-3.041543585950044 1.976711291619899 0.063317330554465 11
-3.026260588630862 1.981838498891406 0.063142806490092 12
-3.011325689560982 1.986357618053313 0.062968282425719 22
-3.002708265904275 1.995750099549635 0.062933377612844 22
-3.002369591000915 2.010670195755523 0.063072996864343 35
-3.006936142724542 2.028967705319213 0.063317330554465 42
-3.011411395535166 2.047321499344790 0.063561664244587 38
-3.009195898656939 2.061210963422140 0.063666378683210 46
-3.008565891807273 2.076245666890473 0.063805997934709 42
-3.006225659949754 2.090159492073176 0.063910712373332 40
-3.015289870370520 2.112113084288138 0.064259760502078 37
-3.020969567100710 2.131849336200561 0.064538999005074 36
-3.018399034700842 2.145857511026592 0.064643713443698 33
-3.007638703721943 2.154051911820952 0.064573903817949 38
-3.011453070587375 2.172727548436808 0.064818237508071 40
-3.010320818833624 2.187928939554954 0.064957856759569 34
-3.022412931041016 2.212071870323250 0.065376714514064 41
-3.014672945662422 2.222608583599551 0.065376714514064 28
nan nan nan 0
-2.886997552951126 2.159750105738266 0.062933377612844 6
-3.781761707220594 2.849761850999733 0.082654596886975 4
-3.789312131454388 2.876244455823421 0.083038549828595 7
nan nan nan 0
-6.449839784720040 4.967045304188932 0.142097493212362 21
nan nan nan 0
-3.802360690739788 2.970729754469152 0.084225313466330 7
-6.604906931479364 5.197549238866930 0.146704928511805 1
-3.298846948438980 2.614633872908291 0.073474631100964 1
-3.164675844415232 2.526327536141165 0.070682246070998 1
-3.105968002186642 2.497262389003899 0.069565292059012 11
-3.099661800974904 2.508265642266069 0.069600196871887 7
-3.095537717760185 2.522860175131246 0.069704911310510 6
-3.120270152791248 2.562106897777074 0.070472817193751 1
-3.092815550264886 2.557690445461803 0.070053959439256 3
-3.105831854108467 2.585845361154948 0.070542626819500 3
-3.112109688852550 2.609519429889941 0.070891674948246 3
-3.096870566722808 2.615206079753686 0.070752055696747 2
-3.115142271904722 2.649319435727099 0.071380342328490 3
-3.114522337579878 2.668525719076861 0.071589771205737 3
-3.114272395079916 2.687219441004148 0.071799200082984 3
-3.105814891806615 2.696989939302649 0.071799200082984 3
-3.120466359836194 2.728877070096222 0.072357677088977 3
-3.092913559946099 2.723893264607538 0.071938819334483 6
-3.092362935051967 2.742634155004413 0.072148248211730 18
-3.096193318929889 2.765400537648755 0.072462391527601 18
-3.098415516026750 2.786889654310910 0.072741630030598 19
-3.105462351000635 2.811913269578667 0.073125582972218 18
-3.101538529391394 2.828125697497159 0.073265202223716 27
-3.100485120066999 2.847049964230995 0.073474631100964 29
-3.106678200315321 2.872789492679334 0.073858584042584 19
-3.542979460626020 3.299260450809943 0.084504551969327 43
-3.564990729176644 3.343068613528541 0.085307362665442 65
-3.550391749095862 3.352746484228093 0.085237553039693 55
-3.547361362778353 3.373387344368949 0.085446981916940 57
-3.550007096893573 3.399580070131262 0.085796030045686 56
-3.558270738799773 3.431384603974237 0.086284697425930 59
-3.559785662816866 3.455701184359791 0.086598840741801 62
-3.566290652931751 3.486278362820262 0.087052603309170 58
-3.562649903135156 3.507122895683833 0.087262032186418 59
-3.564587598972604 3.533615648009379 0.087611080315163 58
-3.569214040763519 3.562990016996962 0.088029938069658 59
-3.579319803597372 3.598110314636013 0.088588415075651 56
-3.578613019420611 3.621338895682194 0.088867653578648 54
-3.574354039241516 3.642372094602500 0.089077082455895 56
-3.578365431864668 3.672012433628439 0.089495940210390 59
-3.587775687545450 3.707472969260544 0.090054417216383 58
-3.592824954107833 3.738718111670399 0.090508179783752 64
-3.594938495830975 3.767150094089849 0.090892132725373 57
-3.590680848480756 3.787758116594442 0.091101561602620 35
nan nan nan 0
-6.711799751744593 7.179917286080251 0.171557155278497 1
-6.716626551059460 7.235544751219409 0.172325061161737 3
-6.443165346004478 6.987283639545391 0.165902575592817 1
-6.351212925345000 6.935991835802075 0.164157334949089 5
-6.320236583576603 6.950721916848230 0.163982810884716 12
-6.295935531236617 6.972741313446718 0.163982810884716 11
-6.310271084445537 7.037852760191485 0.164995050458078 6
-6.298963317619860 7.074771971755834 0.165344098586824 6
-6.264869679754917 7.083637871013244 0.165064860083827 4
nan nan nan 0
-3.942861676548520 4.521379953725271 0.104714438623701 4
-6.287215205416617 7.260720017359795 0.167647816236545 4
-6.298336798452561 7.325077687759331 0.168625150997033 4
nan nan nan 0
nan nan nan 0
-6.816241063115924 8.097414449872041 0.184751174545083 1
-6.825267299542087 8.162928102747971 0.185728509305571 1
-3.989136130898721 4.804937694062873 0.109007730607273 1
-3.972339465154450 4.818833104418986 0.109007730607273 1
-3.975759498688283 4.857428914018109 0.109566207613266 2
-3.976435918956434 4.893003301339911 0.110054874993510 1
-3.981935151219548 4.934866329417122 0.110683161625252 2
-4.029700326371705 5.029888212670364 0.112498211894730 1
-3.982242038067465 5.006364377848977 0.111660496385740 2
-4.022642024748933 5.091720920011947 0.113266117777970 2
-4.007312411455144 5.108878370499449 0.113335927403719 3
-6.916119623148171 8.880948670358654 0.196479191670938 1
-4.040044406520486 5.225321547197194 0.115290596924695 3
nan nan nan 0
nan nan nan 0
-7.553962747828857 9.984506572449694 0.218539033407664 1
-4.026740549349364 5.361165839717165 0.117035837568423 1
-4.030461443466065 5.403341531553382 0.117664124200165 4
-4.032996164396701 5.446304512557214 0.118292410831908 4
-4.042610553759702 5.501334711320590 0.119165031153772 4
-6.984941172268250 9.575234364955444 0.206880825907559 1
-7.155550502684370 9.881373967483242 0.212954263347733 1
-7.121014476598043 9.906291299260440 0.212954263347733 1
-7.046900236348106 9.875743394045006 0.211767499709998 1
-6.998514637935455 9.880699601452660 0.211348641955503 1
-6.997921955485458 9.949651349898959 0.212325976715991 3
-4.151790204982526 5.947026702102232 0.126599756296055 2
-4.145717281396559 5.980483132190460 0.127018614050549 1
-4.093078167397253 5.948790525097593 0.126041279290062 13
-4.074543567387517 5.966344501511247 0.126111088915811 41
nan nan nan 0
-6.954975060487940 10.338397515388962 0.217491889021427 3
-7.014338553510532 10.505636257919107 0.220493702928640 1
-7.097258021457789 10.714659078931014 0.224333232344842 1
nan nan nan 0
nan nan nan 0
-7.121345839541492 10.995296784737924 0.228661429141289 1
-1.164449195071455 1.811728698587155 0.037592483465909 1
-4.276541537881546 6.705075575303888 0.138816440802153 3
-4.248934583644451 6.710772632330306 0.138641916737780 11
nan nan nan 0
-4.190344482387599 6.721605600923842 0.138257963796160 53
-4.157388434452248 6.720886021014937 0.137943820480289 48
-4.122396527417609 6.716609870580394 0.137559867538669 46
-4.089565415326566 6.715587414735022 0.137245724222798 47
-4.059894098838264 6.719552437475000 0.137036295345550 48
-4.031273130717166 6.725107419299681 0.136861771281177 53
-4.002815122985507 6.728127319582621 0.136652342403930 55
-3.970157361294655 6.726559776143173 0.136338199088059 50
-3.944466513813463 6.739340125959960 0.136303294275184 43
-3.945015625867271 6.794571955252109 0.137141009784174 51
-3.951215117995003 6.860286227656592 0.138188154170411 45
-3.956011564008002 6.924389630560699 0.139200393743773 43
-3.962614176246321 6.989657754014868 0.140247538130010 42
-3.970536106029502 7.060966877224172 0.141399396954871 40
-3.977034047288471 7.130669342804740 0.142516350966857 41
-3.992772823735705 7.218000710725319 0.143982353107589 15
nan nan nan 0
nan nan nan 0
nan nan nan 0
nan nan nan 0
nan nan nan 0
nan nan nan 0
-5.154237196899055 9.871732240474685 0.194384902898464 1
nan nan nan 0
-4.432309913087614 8.635461018390494 0.169427961693148 4
nan nan nan 0
nan nan nan 0
nan nan nan 0
-3.869459458229600 7.801812374131231 0.152010460068739 1
nan nan nan 0
nan nan nan 0
nan nan nan 0
-3.611645391511901 7.544842978545406 0.146006832254314 5
-3.602429151427771 7.593537902249106 0.146704928511805 5
nan nan nan 0
nan nan nan 0
nan nan nan 0
-4.550778132547757 9.948935372727744 0.190964231236756 1
nan nan nan 0
nan nan nan 0
-3.864334151342442 8.683515066042101 0.165902575592817 1
nan nan nan 0
nan nan nan 0
-4.373344363778845 10.111043833132308 0.192290614125990 3
-4.131713519485180 9.644658474993488 0.183145553152853 3
-4.299525871751565 10.133965426885357 0.192150994874491 3
-4.330740395331796 10.307459774816783 0.195152808781704 1
-0.971711472248277 2.335535738761955 0.044154588286327 1
-0.963553011117644 2.338913415904784 0.044154588286327 4
-0.957648539380411 2.347817367076253 0.044259302724951 17
nan nan nan 0
-0.945358504699087 2.363564878024287 0.044433826789324 56
-0.929740994454470 2.348257697852019 0.044084778660578 56
-0.922997665945193 2.355212449226819 0.044154588286327 59
-0.914770817058508 2.358419963575481 0.044154588286327 59
-0.909399328925067 2.369066247222571 0.044294207537826 59
-0.901124204104525 2.372226210114791 0.044294207537826 56
-0.890727371002627 2.369741766363243 0.044189493099202 53
-0.882450001936196 2.372836547843623 0.044189493099202 52
-0.878304827795898 2.387162618088208 0.044398921976449 53
-0.869966724291125 2.390213930666772 0.044398921976449 53
-0.862295393173999 2.395117594179408 0.044433826789324 50
-0.852080832471911 2.390280376464772 0.044294207537826 44
nan nan nan 0
-0.851171912996248 2.441488374751845 0.045131923046815 2
-0.836127371575299 2.425539427141240 0.044782874918069 1
-0.834968872350150 2.451302467173261 0.045201732672564 1
-0.820025620668037 2.435250750567016 0.044852684543819 2
-0.812783079481024 2.441893043363474 0.044922494169568 2
-0.808003767758111 2.456112583089544 0.045131923046815 4
-0.790769607330761 2.432294062782180 0.044643255666571 8
nan nan nan 0
-0.780248445557188 2.456679070575719 0.044992303795317 49
-0.772266938283500 2.461295660118707 0.045027208608191 53
-0.762916089248887 2.460023144818341 0.044957398982442 55
-0.757252635818435 2.472231290771179 0.045131923046815 59
-0.749197302545026 2.476773578573615 0.045166827859690 55
-0.736541133748928 2.465961298928559 0.044922494169568 49
-0.729193786065527 2.474398709353118 0.045027208608191 48
-0.725020620243130 2.492289795764616 0.045306447111188 23
nan nan nan 0
-0.716871164162408 2.529997814168349 0.045899828930056 1
-0.711266036316105 2.544039811388108 0.046109257807303 1
-0.700254529773223 2.538796247410006 0.045969638555805 1
-0.692438155000927 2.545084236466457 0.046039448181554 1
-0.682513467617630 2.543623037883485 0.045969638555805 4
-0.673051105096810 2.542006179306446 0.045899828930056 6
-0.660638221521506 2.530796063696026 0.045655495239934 27
-0.652796706018395 2.536959924221602 0.045725304865683 57
-0.649344191511653 2.560544875079235 0.046109257807303 50
-0.636968551895199 2.547164437806695 0.045830019304306 49
-0.631421857358737 2.562963829640557 0.046074352994428 55
-0.620585319634324 2.557379100033926 0.045934733742930 52
-0.611189836695614 2.557584835195927 0.045899828930056 48
-0.603174458466436 2.563595788143047 0.045969638555805 42
-0.598734101922671 2.585166929708538 0.046318686684550 11
-0.594605397790155 2.606634332515055 0.046667734813296 1
-0.580247848573818 2.585280154179863 0.046248877058801 1
-0.574668877158241 2.602911219401836 0.046528115561798 1
-0.567276683198832 2.612717988460739 0.046667734813296 1
-0.558988073052750 2.618593503414492 0.046737544439045 3
-0.548201519019680 2.612700466550411 0.046597925187547 6
-0.537866741028414 2.608722628078679 0.046493210748923 12
nan nan nan 0
-0.524852198611644 2.633804985403599 0.046877163690544 64
-0.513735517005196 2.625808576804363 0.046702639626171 60
-0.504861521459323 2.631601638193128 0.046772449251920 57
-0.493453012844126 2.621556791154570 0.046563020374672 57
-0.486114279525564 2.633095613376231 0.046737544439045 52
-0.479057156971083 2.646582744229098 0.046946973316293 48
-0.468418718461149 2.640363038637048 0.046807354064794 39
nan nan nan 0
-0.451987549343018 2.655396896390570 0.047016782942042 1
-0.440743723036487 2.645123445552095 0.046807354064794 1
-0.436012762891729 2.674276716600395 0.047296021445038 1
-0.428564475155006 2.687630875478400 0.047505450322286 1
-0.417182900225239 2.673231024935342 0.047226211819289 3
-0.409054803075230 2.682578357872898 0.047365831070787 6
-0.398510212150580 2.676078342599278 0.047226211819289 18
-0.392042850826361 2.697242109592095 0.047575259948035 55
-0.382063884554165 2.694634375997802 0.047505450322286 42
-0.374024578024154 2.705855915431630 0.047679974386659 46
-0.364043311710754 2.703181410747364 0.047610164760909 40
-0.355905102360607 2.714349310908152 0.047784688825282 37
-0.347693346431787 2.725493212383049 0.047959212889655 34
-0.339654238986761 2.738597228489187 0.048168641766902 28
-0.331289488072708 2.745664392851606 0.048273356205526 22
-2.062111254393469 17.606954578459312 0.309431166133037 34
-2.004843276634595 17.623630379485679 0.309605690197410 29
-1.943094023830055 17.628533561910142 0.309570785384535 31
-1.881971417677720 17.639185646876271 0.309640595010284 38
-1.820387703722155 17.645647489113536 0.309640595010284 36
-1.754315542775697 17.638271880483551 0.309396261320162 31
-1.692544828697328 17.642297570156501 0.309361356507288 38
-1.631687478096251 17.656063013022703 0.309500975758786 36
-1.571108773411580 17.673602142386517 0.309710404636033 36
-1.509406817348865 17.678978661817570 0.309710404636033 34
-1.447360156900729 17.680153711948833 0.309640595010284 36
-1.388722696317442 17.684856119704637 0.309640595010284 36
-1.327580914028721 17.697572294966299 0.309780214261782 34
-1.266367270126791 17.710077008131464 0.309919833513281 34
-1.204675511268541 17.716384647346619 0.309954738326155 17
nan nan nan 0
-0.485581446799678 7.961991471369445 0.139235298556648 2
-0.353274183912427 6.126888773394815 0.107122870712046 5
-0.329614234463613 6.086152450610862 0.106389869641680 26
-0.307405978555390 6.089316819786166 0.106424774454555 14
-0.284083724993570 6.046407947146593 0.105656868571314 20
-0.263323599024626 6.055353976883687 0.105796487822813 43
nan nan nan 0
-0.222979645134936 6.080986299788827 0.106215345577307 2
-0.202679886836748 6.109707940408494 0.106704012957551 1
-0.181529761727364 6.116374648544611 0.106808727396175 20
-0.228071185917188 8.709687200222749 0.152080269694489 17
-0.199754231270606 8.802392566454326 0.153685891086719 20
-0.170485713638778 8.879010632742922 0.155012273975952 18
-0.140810357651435 8.963528490069166 0.156478276116684 20
-0.110449297026933 9.039948154850352 0.157804659005918 17
-0.082938236101428 9.138231569369131 0.159514994836771 18
-0.051530757160172 9.226450629508562 0.161050806603252 16
-0.017882701018648 9.314563961911013 0.162586618369733 16
0.014785218335954 9.412554589916553 0.164296954200587 14
nan nan nan 0
nan nan nan 0
0.210735397181085 17.498065426137863 -0.305452017465336 2
0.269856924717594 17.371257607022233 -0.303253014254238 10
0.330452831119689 17.210205702916255 -0.300460629224273 10
0.386896226272016 17.049012901822053 -0.297668244194308 11
0.442480085966940 16.897632752692882 -0.295050383228715 30
nan nan nan 0
0.539680597319439 16.354605424563353 -0.285626083752582 4
0.586482761857591 16.070852464970223 -0.280704505137268 27
0.645541944122212 16.072591122235032 -0.280774314763017 34
0.700856794816336 16.052259711498305 -0.280460171447146 23
0.757921552112101 16.071687699138518 -0.280844124388766 17
0.814118764475723 16.070941279473438 -0.280879029201641 10
0.780581695512000 14.506801427007940 -0.253583465533729 11
0.831558367806070 14.509977566773632 -0.253688179972353 7
0.871518290802219 14.249198099393684 -0.249185459111534 1
nan nan nan 0
0.803523992482379 11.816908363314644 -0.206741206656060 1
0.824800306694809 11.534787176261322 -0.201854532853621 3
0.849615035329982 11.352517931972224 -0.198713099694910 5
0.872992907442563 11.142150151878017 -0.195082999155955 3
0.908944136410091 11.103160447443008 -0.194454712524213 1
0.948716535597272 11.111874675640324 -0.194664141401460 1
0.985913060733884 11.112651264436929 -0.194733951027209 3
nan nan nan 0
0.968014186693751 10.090128216532019 -0.176932496461180 22
0.998875287047486 10.042910444584891 -0.176164590577940 32
1.026242431042859 9.981855745634917 -0.175152351004577 26
nan nan nan 0
1.077121432663913 9.803502925580894 -0.172150537097365 8
1.106828849708652 9.759944157523787 -0.171452440839873 14
1.129509634642244 9.658699270762988 -0.169742105009019 2
1.188572850655200 9.865143508639793 -0.173442015173724 6
1.198799703660167 9.638253677001238 -0.169532676131772 2
1.220763945073954 9.542767936751579 -0.167927054739542 2
1.279334557134065 9.756985360832005 -0.171766584155744 2
1.292033483864919 9.593915842689141 -0.168974199125779 2
1.284968270535232 9.284070656635343 -0.163598857943096 2
nan nan nan 0
nan nan nan 0
1.431455750962165 9.612520875855504 -0.169637390570396 10
nan nan nan 0
1.461527677064027 9.365199599551753 -0.165448813025448 72
1.490741845569520 9.338319246086712 -0.165064860083827 61
1.521074705077596 9.319243635384387 -0.164820526393706 55
1.550305547025973 9.294152884674205 -0.164471478264960 74
1.580051587390656 9.272914422638992 -0.164192239761963 72
1.610108131113321 9.263683480886474 -0.164122430136214 74
1.639640167380040 9.242255110635574 -0.163843191633218 74
1.672077633603673 9.228312821290348 -0.163703572381719 74
nan nan nan 0
1.528012633789325 8.110051933581687 -0.144052162733338 7
1.521241915898594 7.922033873912349 -0.140806015136003 11
1.552107345742799 7.940496352405705 -0.141224872890498 9
1.573567978312739 7.903650851517774 -0.140666395884505 11
1.589005669206350 7.831198529945361 -0.139479632246770 11
1.602983885810091 7.760978294579449 -0.138327773421909 14
1.625423568247170 7.739963877550941 -0.138048534918913 4
1.642403786187704 7.687309476933601 -0.137210819409923 2
1.518907850331878 6.989781562546959 -0.124854515652326 38
1.716309031420151 7.767428120844539 -0.138851345615028 30
2.666950488916645 11.882532935060652 -0.212570310406113 14
2.686620200486403 11.777620046913576 -0.210859974575259 22
1.812004948722036 7.817524775562750 -0.140073014065637 16
2.720194278375582 11.552252065965588 -0.207160064410555 27
1.873048683089331 7.831912093766531 -0.140561681445881 16
2.743204424274671 11.295907949165182 -0.202901677239858 26
2.433653679387113 9.870869420294413 -0.177456068654299 34
2.468580080190132 9.864254119903146 -0.177490973467173 66
2.492660849646289 9.814875572712820 -0.176757972396807 54
2.532893901657042 9.829352005793980 -0.177176830151302 40
2.591971084207671 9.915250137060495 -0.178887165982156 26
2.651166007501986 9.998921539307654 -0.180562597000135 16
2.825172310232680 10.521647021813294 -0.190161420540641 31
2.839819529565409 10.430683730157567 -0.188695418399909 33
2.851411965029896 10.323828913572777 -0.186950177756181 33
2.864250085872851 10.231009530517316 -0.185449270802575 33
2.874291949598168 10.130532272979771 -0.183808744597470 35
2.884772628896141 10.033954364093734 -0.182238028018114 33
2.888911130891726 9.930757183123724 -0.180527692187261 37
2.896990816733196 9.830459988709093 -0.178887165982156 36
2.910092644897350 9.736877883244823 -0.177386259028550 42
2.919731863319113 9.646274820340526 -0.175920256887818 40
2.931118266378935 9.563371721713107 -0.174593873998584 40
2.941961745136579 9.480507553220853 -0.173267491109351 56
2.945830546474790 9.382937205051586 -0.171661869717121 44
2.959790148259720 9.313518175378022 -0.170579820518009 50
2.969015177291177 9.230791198530357 -0.169253437628776 53
2.977699011857216 9.148114182664703 -0.167927054739542 46
2.985842116229662 9.065489897026426 -0.166600671850308 53
2.988387404640573 8.967744050379110 -0.164995050458078 51
2.998954594757589 8.900934132026649 -0.163947906071841 51
3.011298657261762 8.835520831584081 -0.162935666498479 55
3.022145341272588 8.762041059924281 -0.161783807673618 53
3.030319018294179 8.687242326354868 -0.160597044035883 48
3.032020722197264 8.595521785169989 -0.159096137082276 63
3.043196177773504 8.532148350089624 -0.158118802321789 60
3.047742040652540 8.456166492153647 -0.156897133871179 56
3.057387834541501 8.390989424908566 -0.155884894297816 58
3.068689424066010 8.331478094172288 -0.154977369163078 63
3.071240713786879 8.249502279070837 -0.153650986273844 56
3.081003943775471 8.188198507319223 -0.152708556326231 63
3.087533814371425 8.119451234378436 -0.151626507127119 60
3.094338827324164 8.052625477273278 -0.150579362740882 58
3.103610351158817 7.993308271873885 -0.149671837606143 58
3.105202773661614 7.915409316248549 -0.148415264342659 64
3.114394142091008 7.858046595427174 -0.147542644020795 66
3.118889788514827 7.793835469630497 -0.146530404447432 64
3.131837319337540 7.747675894187590 -0.145867213002816 68
3.134501702794288 7.673204457249347 -0.144680449365080 26
2.959159542277634 7.172352008644010 -0.135430673953320 9
2.951105622364186 7.082606471007824 -0.133929766999714 7
2.944788290778396 6.998535044859657 -0.132533574484731 7
2.937495162668075 6.916948171013130 -0.131172286782623 30
2.963198090561589 6.910327965315576 -0.131242096408372 45
2.983329108326154 6.890766918340347 -0.131067572343999 45
3.009766885934611 6.885808095170217 -0.131172286782623 47
3.038628227111959 6.886237095989995 -0.131381715659870 47
3.069970181964784 6.892028386663520 -0.131695858975741 42
3.092369068237209 6.877622563716494 -0.131626049349992 23
3.156024852279053 6.954191674603792 -0.133301480367971 35
3.209426607332854 7.006764472606159 -0.134523148818581 33
3.093736660859862 6.692391748546672 -0.128694045068529 57
2.486392248415374 5.329656604957946 -0.102655054664102 22
2.511795031191951 5.335418845092633 -0.102934293167098 50
2.513968107618177 5.296790225385851 -0.102340911348231 48
2.531578314844599 5.286179028072675 -0.102306006535356 56
2.552625146070269 5.282711510945807 -0.102410720973980 62
2.568420813843429 5.268376600437999 -0.102306006535356 56
2.588560360482393 5.262967836915272 -0.102375816161105 50
2.606915776215052 5.253900011228462 -0.102375816161105 38
2.636875333590154 5.268014669004097 -0.102829578728474 30
3.273544126417320 6.483327319689927 -0.126774280360427 45
3.280943552403935 6.439214283917352 -0.126145993728685 60
3.286947597108234 6.395708310974597 -0.125517707096943 60
3.291767831788860 6.350463911520267 -0.124854515652326 63
3.295386014137242 6.303492064034959 -0.124156419394835 67
3.300260504689852 6.264800727063993 -0.123597942388842 63
3.307097694009792 6.224987239523741 -0.123039465382849 63
3.308031274713976 6.174626689221929 -0.122271559499608 63
3.314356759031507 6.134892109842852 -0.121713082493615 63
3.318743805208090 6.087006729789215 -0.121014986236124 63
3.326484156521794 6.050852217900595 -0.120526318855880 65
3.334012704420679 6.014718135456534 -0.120037651475636 65
3.336451833327568 5.969877628743944 -0.119374460031019 60
3.333607166212785 5.921031307693616 -0.118606554147779 58
3.340435345074842 5.885011798645801 -0.118117886767535 60
3.348046038933379 5.850752675943388 -0.117664124200165 63
3.355458418954434 5.816512402616685 -0.117210361632796 63
3.357646293816302 5.773648758403138 -0.116582075001054 63
3.355530785212920 5.723940620562020 -0.115814169117813 57
3.360230720237244 5.686369103833715 -0.115290596924695 53
3.368802749619687 5.655706896341376 -0.114906643983075 57
3.374113834724652 5.619911063081855 -0.114417976602831 59
3.384392737131473 5.592701504289404 -0.114103833286960 61
3.379870777108887 5.539290957930345 -0.113266117777970 59
3.385568225624293 5.505315355377475 -0.112812355210601 57
3.390016374319758 5.469668031151078 -0.112323687830357 57
3.397435233376979 5.439145091902012 -0.111939734888736 51
3.399478415678482 5.402461377930092 -0.111416162695618 55
3.400110498293348 5.361852936311673 -0.110822780876750 59
3.399571929542377 5.321899677319262 -0.110229399057883 59
3.408386774411218 5.294867536829780 -0.109915255742012 61
3.413789739432084 5.262805920207963 -0.109496397987517 59
3.417916478452957 5.229097498611053 -0.109042635420147 57
3.415250140848780 5.185404552352299 -0.108379443975531 53
3.421166608655505 5.155123665804433 -0.107995491033910 53
3.424907667113118 5.123800419583305 -0.107576633279416 55
3.436069855666888 5.101862427623484 -0.107367204402168 57
3.438137976585213 5.066671514148771 -0.106878537021924 53
3.433230819625592 5.021624025469456 -0.106180440764433 46
3.438260626090781 4.991494262266380 -0.105796487822813 36
3.445402285722603 4.964676481356543 -0.105482344506942 34
3.456698870677940 4.942183174538220 -0.105272915629694 27
3.463562750226741 4.915375136381368 -0.104958772313823 21
3.458706397225734 4.872273441587709 -0.104295580869206 16
3.458244477091276 4.835772172764450 -0.103772008676088 12
3.463744019539359 4.809673360759589 -0.103457865360217 8
3.467594931160760 4.779748650501083 -0.103073912418596 6
3.474819005090925 4.754699373974500 -0.102794673915600 4
3.470055238496109 4.713554356437939 -0.102166387283858 2
nan nan nan 0
nan nan nan 0
nan nan nan 0
nan nan nan 0
nan nan nan 0
nan nan nan 0
nan nan nan 0
nan nan nan 0
nan nan nan 0
nan nan nan 0
nan nan nan 0
nan nan nan 0
nan nan nan 0
nan nan nan 0
nan nan nan 0
nan nan nan 0
nan nan nan 0
nan nan nan 0
nan nan nan 0
nan nan nan 0
nan nan nan 0
nan nan nan 0
nan nan nan 0
nan nan nan 0
nan nan nan 0
nan nan nan 0
nan nan nan 0
nan nan nan 0
nan nan nan 0
nan nan nan 0
nan nan nan 0
nan nan nan 0
nan nan nan 0
nan nan nan 0
nan nan nan 0
nan nan nan 0
nan nan nan 0
nan nan nan 0
nan nan nan 0
nan nan nan 0
nan nan nan 0
nan nan nan 0
nan nan nan 0
nan nan nan 0
nan nan nan 0
nan nan nan 0
nan nan nan 0
nan nan nan 0
nan nan nan 0
nan nan nan 0
nan nan nan 0
nan nan nan 0
nan nan nan 0
3.647816667163278 3.386202853066030 -0.086878079244797 1
3.624326932740411 3.340920732435999 -0.086040363735808 5
3.627116618233307 3.320147901578647 -0.085830934858560 15
3.638683999569032 3.307466674344826 -0.085830934858560 26
3.650207044688520 3.294745146673351 -0.085830934858560 46
3.654240136137111 3.275310062686354 -0.085656410794187 63
3.641750914990891 3.241262811749149 -0.085097933788194 65
3.635062324193166 3.212639935211143 -0.084679076033700 65
3.643248403754832 3.197293596242888 -0.084609266407950 63
3.645341333262206 3.176674240685518 -0.084399837530703 61
3.650359138911786 3.158696309014013 -0.084260218279205 63
3.646195604402723 3.132902891881305 -0.083911170150459 63
3.651024222074517 3.114964599652001 -0.083771550898961 63
3.655772108983065 3.097030834071632 -0.083631931647463 65
3.660439355785816 3.079101939914477 -0.083492312395964 65
3.661956518503511 3.058614460487372 -0.083282883518717 63
3.651061498650923 3.027941718534703 -0.082794216138473 65
3.661082440456578 3.015817713648243 -0.082794216138473 65
3.662299983928517 2.995423606208345 -0.082584787261226 65
3.669629058481863 2.980100308984805 -0.082514977635476 65
3.673782443303020 2.962251991240719 -0.082375358383978 67
3.668489656186998 2.936912550089790 -0.082026310255233 65
3.669326570285958 2.916623479044744 -0.081816881377985 63
