# This PCD file was generated using the MATLAB® pcwrite function
# from Computer Vision Toolbox®.
# .PCD v.7 - Point Cloud Data file format
VERSION .7
FIELDS x y z intensity
SIZE 8 8 8 1
TYPE F F F U
COUNT 1 1 1 1
WIDTH 878
HEIGHT 1
VIEWPOINT 0 0 0 1 0 0 0
POINTS 878
DATA ascii
2.168223373134349 10.036910968208549 0.179236214110902 36
2.183079495834203 9.937484575409693 0.177595687905797 36
2.200361859080535 9.868120740322693 0.176478733893811 37
2.218882319861862 9.790171522758349 0.175222160630326 36
2.235885744666591 9.700131944163628 0.173756158489595 38
2.251949751885895 9.616334349610938 0.172394870787487 38
2.267363048796579 9.546953685871580 0.171277916775500 38
2.284733232977979 9.472886521739310 0.170091153137765 39
2.300662876423758 9.394930612499714 0.168834579874281 39
2.315593918051674 9.315039136564161 0.167543101797922 40
2.330484649966974 9.237097709058636 0.166286528534437 40
2.348827292205228 9.174664420121625 0.165309193773949 41
2.366259923331254 9.110280812690505 0.164296954200587 42
2.383781334197348 9.047821685501889 0.163319619440099 42
2.392105200277567 8.958722683361293 0.161853617299367 50
2.405593519332359 8.884691439880207 0.160666853661632 47
2.423358506022200 8.828031227532062 0.159794233339768 51
2.437540942809799 8.759796835242883 0.158712184140656 50
2.453990736071408 8.701194812028504 0.157804659005918 47
2.466764205023908 8.631049027778518 0.156687704993931 50
2.477409416648336 8.555158496122889 0.155466036543322 57
2.492058488490905 8.494650254421607 0.154523606595708 50
2.506885122780639 8.436061467337566 0.153616081460969 48
2.523062190653926 8.383217836032340 0.152813270764854 55
2.531322239147368 8.305497835111417 0.151556697501370 51
2.543198310668551 8.241198621487035 0.150544457928008 47
2.558234491968104 8.188370639094751 0.149741647231893 57
2.574138988449247 8.139351871710339 0.149008646161527 62
2.584472499079353 8.083606968386759 0.148136025839662 58
2.597899026499406 8.028874382868819 0.147298310330673 56
2.609253906416108 7.964189753977154 0.146286070757310 58
2.623195499868302 7.913274532907499 0.145518164874070 62
2.561784903738269 7.638641560558898 0.140631491071631 85
2.640471623287532 7.783041127014033 0.143458780914470 62
2.506008278642490 7.302810707736684 0.134767482508703 38
2.668516506422744 7.688851531661059 0.142062588399488 52
2.683418929660411 7.645526481951630 0.141434301767746 66
2.694707408632745 7.592768847105696 0.140631491071631 67
2.705727304080266 7.548499760287077 0.139968299627014 65
2.715027208209512 7.492007718274234 0.139095679305150 71
2.728626805185595 7.440224269813565 0.138327773421909 70
2.740679914943178 7.393154108754306 0.137629677164418 68
2.743316828251718 7.321747508957969 0.136477818339557 56
2.753986680146735 7.272854646571655 0.135744817269191 66
2.694311010954985 7.040949648089109 0.131591144537118 90
2.777288181989706 7.182576559889854 0.134418434379958 71
2.787998583616940 7.139798323070159 0.133790147748215 68
2.802630036756240 7.103980545609865 0.133301480367971 67
2.812603409482831 7.057002366691400 0.132603384110480 72
2.822283142898015 7.010041573082868 0.131905287852989 71
2.828656265746213 6.955690118294125 0.131067572343999 76
2.839243145701773 6.912478567947128 0.130439285712257 71
2.852627855768491 6.876666572787196 0.129950618332013 67
2.864251956718230 6.837156894660152 0.129392141326020 70
2.870960574971429 6.786600119575080 0.128624235442779 72
2.875780314511988 6.732402408352351 0.127786519933790 65
2.885008487225103 6.689271470970709 0.127158233302048 65
2.900357458068340 6.660825928215137 0.126809185173302 66
2.907950185660813 6.618217592264439 0.126180898541560 61
2.913196806532778 6.567811808180843 0.125412992658319 66
2.922213047516959 6.526576052546353 0.124819610839452 72
2.935094772348478 6.494468964431544 0.124400753084957 72
2.941682670042938 6.451949119864256 0.123772466453215 69
2.948303698973156 6.407126142431415 0.123109275008598 68
2.957174621919637 6.367776971391459 0.122550798002605 65
2.964958339067534 6.326633578470599 0.121957416183737 69
2.975055732963317 6.290937031065104 0.121468748803493 69
2.985801397423502 6.257052132454239 0.121014986236124 74
2.991791949838559 6.216484502198230 0.120421604417256 72
2.996877363312588 6.171825337109506 0.119758412972639 66
3.003637065235488 6.128478472944288 0.119130126340897 68
3.015261624920729 6.098238489890621 0.118746173399277 69
3.024760417046886 6.066730838420201 0.118327315644782 69
3.036035319324802 6.036484316471520 0.117943362703162 74
3.038228805480794 5.986086504375442 0.117175456819922 78
3.044525449155170 5.946964710628910 0.116616979813928 74
3.052306482771673 5.913735472794582 0.116163217246559 64
3.059080327572879 5.876438634236600 0.115639645053441 61
3.072137949475278 5.851560509470475 0.115360406550444 59
3.075702083267022 5.808990380061398 0.114732119918702 68
3.080890420926067 5.769995025432001 0.114173642912709 66
3.091532372326339 5.741598693088934 0.113824594783963 68
3.100105391176790 5.709683853104777 0.113405737029468 68
3.107533111012140 5.676025353663277 0.112951974462099 64
3.112794023001058 5.643471761485954 0.112498211894730 66
3.114980023894354 5.601114582880874 0.111869925262987 61
3.121798493307554 5.567532362355236 0.111416162695618 64
3.134325162232600 5.544415803475706 0.111171829005496 68
3.141777769384065 5.512593058367647 0.110752971251001 70
3.143069237103433 5.470382831631764 0.110124684619259 70
3.151067280151122 5.438063591712857 0.109705826864764 66
3.161961665445309 5.413217550405104 0.109426588361768 66
3.165769900563665 5.380851406601329 0.108972825794398 62
3.174332991372173 5.352568255969451 0.108623777665653 64
3.178633217107179 5.317425473763260 0.108135110285409 62
3.185822991601254 5.287456624339902 0.107751157343788 68
3.193638851766746 5.254678930434367 0.107332299589294 70
3.202560784112581 5.228152210704280 0.107018156273423 72
3.213579217127043 5.207293011824969 0.106808727396175 72
3.210614022946665 5.162082731768020 0.106110631138684 69
3.212849978658887 5.127683981624005 0.105621963758440 64
3.223255764889671 5.104602024564374 0.105377630068318 61
3.231392542935111 5.078135868329518 0.105063486752447 62
3.238304509974826 5.049991959104532 0.104714438623701 64
3.240927938140226 5.017388943585141 0.104260676056332 68
3.247513471012645 4.989285983903192 0.103911627927586 70
3.255905277244202 4.962302327226292 0.103597484611715 72
3.263281615541915 4.935894007074799 0.103283341295844 70
3.269404733872483 4.907830601948521 0.102934293167098 70
3.268685123518806 4.869822661612248 0.102375816161105 66
3.272496604890831 4.840733377373205 0.101991863219485 64
3.282619619179746 4.819364353505096 0.101782434342237 64
3.290370428193762 4.794686178104092 0.101503195839241 62
3.297989059370832 4.770012775111979 0.101223957336244 64
3.304332668816741 4.743703913950028 0.100909814020373 66
3.304789453966063 4.709224804387892 0.100421146640129 68
3.315435584402113 4.689496081706688 0.100246622575756 72
3.321343952020374 4.663235341687857 0.099932479259885 68
3.330606822243491 4.641864874040119 0.099723050382638 70
3.330389573884473 4.607521440361590 0.099234383002394 66
3.330351917601622 4.575434241026056 0.098780620435025 64
3.338025799720201 4.552492763376658 0.098536286744903 66
3.346768261727365 4.531162106051413 0.098326857867655 66
3.353015230309390 4.506617304547858 0.098047619364659 61
3.358714419116241 4.479897947328721 0.097733476048788 62
3.361075415607562 4.450593120130088 0.097349523107167 66
3.366132405129771 4.426688829247222 0.097070284604171 68
3.379132020109531 4.411736812019099 0.097000474978422 66
3.384739375806556 4.387248381420786 0.096721236475425 70
3.385309039823892 4.356458717437746 0.096302378720930 68
3.385705173262192 4.325718764569965 0.095883520966436 66
3.394594126132036 4.306022121023287 0.095708996902063 66
3.400899952991592 4.283184096886290 0.095464663211941 62
3.410834606249782 4.265039791702164 0.095325043960443 62
3.407916946593856 4.234052140099983 0.094871281393073 59
3.410083158353890 4.206596534079527 0.094522233264328 61
3.419884061959412 4.185729029992830 0.094347709199955 62
3.429391685149800 4.167589411831937 0.094208089948456 64
3.438814402308828 4.149434495120282 0.094068470696958 64
3.436619941060978 4.117447712737084 0.093614708129589 68
3.436676491028452 4.091319128676836 0.093265660000843 66
3.443187812669880 4.070137863086543 0.093056231123596 68
3.454780588962530 4.055049766346246 0.092986421497847 68
3.458497146383154 4.030824588924795 0.092707182994850 70
3.462086802845101 4.006623022526926 0.092427944491853 68
3.460298936001459 3.976411648894632 0.092009086737359 70
3.468886258011919 3.958293082872961 0.091869467485860 70
3.474742900708307 3.937164488727831 0.091660038608613 68
3.483151268268086 3.919032693816565 0.091520419357115 68
3.486140886599546 3.894930136176422 0.091241180854118 68
3.486327138163173 3.867883879580101 0.090892132725373 66
3.494431284473411 3.849768042284065 0.090752513473874 66
3.499753159174663 3.828690869563472 0.090543084596627 70
3.507679197513159 3.810566081409301 0.090403465345129 70
3.508063514084538 3.785712389393197 0.090089322029257 74
3.506249450702020 3.757361805337441 0.089705369087637 78
3.516604940839068 3.742185345028518 0.089635559461888 76
3.524148289801266 3.724077511032319 0.089495940210390 73
3.531608138202234 3.705962682770625 0.089356320958892 76
3.530677053951847 3.679184318035894 0.089007272830146 73
3.533771043587334 3.656771711788816 0.088762939140024 71
3.542330175457809 3.640114922256418 0.088658224701400 73
3.545217681333881 3.617730030811291 0.088413891011278 69
3.555015138806384 3.602486181256157 0.088344081385529 70
3.553473013984088 3.575870581132514 0.087995033256783 70
3.551788566083982 3.549309815038133 0.087645985128038 66
3.562736913604459 3.535481577246047 0.087611080315163 62
3.567934715783879 3.516005789604905 0.087436556250790 66
3.577327697250675 3.500732723026330 0.087366746625041 66
3.578053025468377 3.477075252689491 0.087087508122045 66
3.582973757974906 3.457621318604075 0.086912984057672 62
3.586358578142167 3.436791911435020 0.086703555180424 52
3.593390580413058 3.420743892398389 0.086598840741801 36
3.600949809355911 3.404058641770833 0.086494126303177 27
3.585696455115666 3.364838477905329 0.085830934858560 14
3.595957127431836 3.350938283361928 0.085796030045686 3
nan nan nan 0
nan nan nan 0
nan nan nan 0
nan nan nan 0
0.570737969002335 0.513714432653926 0.013403448143834 6
0.518853218956179 0.463745394165217 0.012146874880349 8
0.553372033428925 0.491133995012120 0.012914780763590 7
0.534079897630243 0.470689127400935 0.012426113383346 7
0.502613384655837 0.439849828649151 0.011658207500105 8
0.483013829930500 0.419729533711152 0.011169540119861 9
0.520811717991002 0.449394014441141 0.012007255628851 8
0.528451376634713 0.452777645167601 0.012146874880349 8
0.508705654547973 0.432789375133913 0.011658207500105 8
0.525489118656417 0.443915546006181 0.012007255628851 8
0.527035471625785 0.442078542185040 0.012007255628851 8
0.534721628448605 0.445355176797030 0.012146874880349 8
nan nan nan 0
nan nan nan 0
nan nan nan 0
nan nan nan 0
nan nan nan 0
nan nan nan 0
nan nan nan 0
nan nan nan 0
0.526311011482424 0.411199228343430 0.011658207500105 8
0.527743158183989 0.409359554899936 0.011658207500105 8
0.529168874501718 0.407514893539451 0.011658207500105 8
0.530588143063706 0.405665266738592 0.011658207500105 8
0.532000946576614 0.403810697034478 0.011658207500105 8
0.533407267825878 0.401951207024456 0.011658207500105 8
0.534737253207775 0.400180154717458 0.011658207500105 8
0.558603436887539 0.415006811664665 0.012146874880349 8
0.582579371733137 0.429671524193544 0.012635542260593 7
0.519536909457757 0.380382802882016 0.011239349745611 9
0.556377745366816 0.404528899181260 0.012007255628851 8
0.518871093114065 0.374497036175357 0.011169540119861 9
0.523491709512684 0.374921467895322 0.011239349745611 9
0.524797240374553 0.373091856668770 0.011239349745611 9
0.526096376747663 0.371257699435685 0.011239349745611 9
0.547043355080800 0.383186186937663 0.011658207500105 8
0.571363478788921 0.397255872879009 0.012146874880349 8
0.526663613445474 0.363456571884547 0.011169540119861 9
0.574054256616898 0.393357552222735 0.012146874880349 8
0.552274598702138 0.375607313329063 0.011658207500105 8
0.533756029744929 0.360158545266145 0.011239349745611 9
0.568240398518159 0.380547430519308 0.011937446003102 8
0.542918965438044 0.360851099530328 0.011378968997109 9
0.524144271908064 0.345740738397306 0.010960111242614 9
0.558809591207706 0.365814060653990 0.011658207500105 8
0.519837622743302 0.337715505912392 0.010820491991116 10
0.561349816590229 0.361903950810157 0.011658207500105 8
nan nan nan 0
nan nan nan 0
nan nan nan 0
nan nan nan 0
nan nan nan 0
nan nan nan 0
nan nan nan 0
nan nan nan 0
nan nan nan 0
nan nan nan 0
nan nan nan 0
nan nan nan 0
nan nan nan 0
nan nan nan 0
nan nan nan 0
nan nan nan 0
nan nan nan 0
nan nan nan 0
nan nan nan 0
nan nan nan 0
nan nan nan 0
nan nan nan 0
nan nan nan 0
nan nan nan 0
3.908532718670572 2.062479445611413 0.077139636452793 1
3.907906930484046 2.046479518594253 0.077000017201295 3
3.916801386243771 2.033747408482466 0.077034922014169 8
3.907875317710798 2.011825147308448 0.076720778698298 18
3.911311875072215 1.996353687315782 0.076650969072549 37
3.906111613676718 1.975686738217729 0.076406635382427 32
3.914771817056608 1.962936145500375 0.076441540195302 37
3.921599892761311 1.949259082838155 0.076441540195302 44
3.922998842289712 1.932906819385502 0.076336825756678 49
3.922200214768492 1.916375605404849 0.076197206505180 50
3.925266208094482 1.900929723855126 0.076127396879431 55
3.932207098572644 1.886530135825895 0.076127396879431 57
3.938768361309843 1.872792678165134 0.076127396879431 59
3.937721974404270 1.856310186888201 0.075987777627932 61
3.933307221840662 1.837475425815736 0.075778348750685 59
3.939697244982614 1.823734426866212 0.075778348750685 61
3.935133582173997 1.804968982779375 0.075568919873438 37
nan nan nan 0
3.548037408003956 1.598274312372022 0.067924765853907 8
3.557524033459190 1.586888618985466 0.067994575479657 6
3.577674249325693 1.580926833232995 0.068273813982653 9
3.586834691341811 1.570032498421281 0.068343623608402 10
3.581285226428257 1.552729808587136 0.068134194731155 5
3.579065362714387 1.537687831493594 0.067994575479657 4
3.573370809463813 1.520487498130788 0.067785146602409 5
3.580762577146355 1.508156426480431 0.067820051415284 10
3.593387619359156 1.498727093302579 0.067959670666782 10
3.962422334733930 1.637239391921234 0.074835918803072 6
nan nan nan 0
nan nan nan 0
3.999766330729317 1.603842657637853 0.075219871744692 63
3.997905911849625 1.586920059638602 0.075080252493194 61
4.010865702315195 1.575880163237785 0.075219871744692 61
4.001432260351288 1.556071903001051 0.074940633241695 59
4.003107086067480 1.540658306454549 0.074870823615946 57
4.012198091266888 1.528098942452247 0.074940633241695 59
4.013765269839140 1.512674029129942 0.074870823615946 59
4.015273695388356 1.497256811448315 0.074801013990197 61
4.012971247016072 1.480463254105940 0.074661394738699 61
4.014101811894376 1.465775814774085 0.074591585112950 57
4.026716927282791 1.454472424842932 0.074731204364448 57
4.028003202469806 1.439062151899168 0.074661394738699 58
4.033001926832998 1.424993029560851 0.074661394738699 61
4.034175959606141 1.409587323427043 0.074591585112950 58
4.023951229323141 1.390272699570161 0.074312346609953 54
3.739252527331800 1.277316488753111 0.068971910240144 25
3.728531779883391 1.259137833300710 0.068692671737148 50
3.778207300560040 1.261971124568317 0.069530387246138 32
4.040838458110706 1.334032764625210 0.074277441797079 59
4.043799615904463 1.318593459756670 0.074242536984204 55
4.048377729819781 1.304469931581939 0.074242536984204 57
4.060302652026213 1.293465758643282 0.074382156235702 55
nan nan nan 0
nan nan nan 0
nan nan nan 0
nan nan nan 0
nan nan nan 0
nan nan nan 0
nan nan nan 0
nan nan nan 0
nan nan nan 0
nan nan nan 0
nan nan nan 0
3.823652466153135 1.043164301727667 0.069181339117392 1
4.074440334284010 1.096317364773097 0.073649155165336 5
nan nan nan 0
4.112948234403809 1.075943329568114 0.074207632171329 43
4.228796788080820 1.091279244887086 0.076232111318054 15
4.391495860967677 1.116929807045317 0.079094305973769 6
4.022944865039582 1.008254891848901 0.072392581901852 1
3.308126064180541 0.816840458511402 0.059477801138262 1
3.254608764987516 0.791582948892496 0.058465561564900 5
nan nan nan 0
nan nan nan 0
nan nan nan 0
3.259495365807126 0.744728119386246 0.058360847126276 4
3.283536114465806 0.738170463689647 0.058744800067896 5
3.354431040040563 0.741816972214715 0.059966468518506 6
3.413666501280643 0.742427515110953 0.060978708091869 11
3.404504332661349 0.727998175542934 0.060769279214621 11
3.412895585744493 0.717343765361112 0.060873993653245 9
3.368135107925947 0.696894210094510 0.060036278144255 2
3.370547202854989 0.685132978795352 0.060036278144255 1
3.314203683392394 0.661040261320572 0.058989133758018 4
3.312566111888304 0.648698903662556 0.058919324132269 2
3.283390309387437 0.631092772691445 0.058360847126276 5
3.297363565290234 0.621851301410032 0.058570276003523 6
3.305413154922493 0.611428753627067 0.058674990442147 5
3.279980970968607 0.594890899150734 0.058186323061903 5
3.299757003812135 0.586587939891662 0.058500466377774 5
3.291934282239179 0.573350473856676 0.058325942313401 5
3.303771714157612 0.563537182593709 0.058500466377774 6
3.325442556895523 0.555294998564288 0.058849514506520 4
3.307531025070016 0.541036240591024 0.058500466377774 4
3.309399443378049 0.529487506559542 0.058500466377774 4
3.323081574229386 0.519786493876367 0.058709895255022 4
3.301154849172007 0.504558040997524 0.058291037500527 4
3.358273870210988 0.501298187417073 0.059268372261015 1
3.352088065640678 0.488419277626180 0.059128753009517 2
3.349896008502339 0.475567843137540 0.059058943383767 2
3.319842632925290 0.459485133649894 0.058500466377774 4
3.329274931992093 0.449543955099431 0.058640085629273 9
3.348667549350218 0.440265877417598 0.058954228945144 12
3.332406534243541 0.425708856953130 0.058640085629273 9
3.349747815369915 0.416045774727110 0.058919324132269 8
3.331256513032470 0.402536417169455 0.058570276003523 5
3.336613491110064 0.391371628123068 0.058640085629273 5
3.335972424707604 0.379496263976269 0.058605180816398 5
3.329326160356240 0.366972881938810 0.058465561564900 5
3.308652677484974 0.353592967281938 0.058081608623280 4
3.351637945232794 0.346358088922845 0.058814609693645 5
3.287162876060976 0.328102473944926 0.057662750868785 4
3.176820746297906 0.305893045955220 0.055708081347809 3
3.086326360598113 0.285766547559302 0.054102459955579 4
3.079337830157556 0.274281861565255 0.053962840704081 6
nan nan nan 0
nan nan nan 0
3.089973045023021 0.243186152685375 0.054102459955579 100
3.074850565819458 0.231199175414250 0.053823221452582 84
3.079628023977899 0.220750481610279 0.053893031078331 32
3.096340342038144 0.211087307708254 0.054172269581328 30
3.087080673973670 0.199632552098491 0.053997745516955 6
nan nan nan 0
nan nan nan 0
3.879722510346753 0.210118260355248 0.067820051415284 34
3.882429457847192 0.196675391840538 0.067854956228158 35
3.895077182863548 0.183687177059234 0.068064385105406 32
4.031544505016003 0.176021034466630 0.070437912380876 32
4.004161189577200 0.160823726506827 0.069949245000632 26
3.890792088625976 0.142668869233552 0.067959670666782 37
3.891266391879404 0.129086601135477 0.067959670666782 34
3.903645492606308 0.117221337314562 0.068169099544029 34
3.912026856091836 0.103806532322110 0.068308718795528 33
3.902369551458301 0.089920049819118 0.068134194731155 33
3.902659656436724 0.076297690197879 0.068134194731155 32
3.910910860762102 0.062120250299663 0.068273813982653 33
3.917102499868482 0.048542583110465 0.068378528421277 33
3.933245010151313 0.035011443283203 0.068657766924273 33
3.923344929615218 0.021227546018012 0.068483242859900 32
3.933392205835026 0.008238089417131 0.068657766924273 33
3.929397611680029 -0.005486477640896 0.068587957298524 35
3.935353535600135 -0.019231918498515 0.068692671737148 33
3.951259429896627 -0.033102768023273 0.068971910240144 33
3.949120252689650 -0.046871303365265 0.068937005427270 34
3.952931500986513 -0.060717443825914 0.069006815053019 33
3.956707113522176 -0.073900187591085 0.069076624678768 33
3.962422660617475 -0.087844185596195 0.069181339117392 33
3.972051250318991 -0.103318096583575 0.069355863181765 34
3.967668752627294 -0.117064564269498 0.069286053556016 34
3.977274556564930 -0.129855034010549 0.069460577620388 33
3.978795437464901 -0.143809751859376 0.069495482433263 33
3.992200607213571 -0.159645450328750 0.069739816123385 32
4.001608055327623 -0.174014242443524 0.069914340187758 30
3.996981269322872 -0.187793701259375 0.069844530562009 31
3.996301395996103 -0.201744625480268 0.069844530562009 31
4.005632004292496 -0.214833838528565 0.070019054626381 29
4.014839888202584 -0.229385120720705 0.070193578690754 29
4.025948231086346 -0.244826994300252 0.070403007568002 29
4.056998252904155 -0.260932258718022 0.070961484573995 21
4.127935545000931 -0.279243063369616 0.072218057837479 18
4.112973089750564 -0.292657045054542 0.071973724147357 17
4.095973310406242 -0.305821093399264 0.071694485644361 17
4.068963874151391 -0.318090789282506 0.071240723076991 18
4.073807910690576 -0.332780611425295 0.071345437515615 43
4.048711755455186 -0.344961652249023 0.070926579761120 36
4.053458563027273 -0.359622347838940 0.071031294199744 33
4.060143521839361 -0.374504049570077 0.071170913451242 34
4.070755058589190 -0.389818034087177 0.071380342328490 34
4.059419980508200 -0.403037409301106 0.071205818264117 35
4.060050385883760 -0.416700880081380 0.071240723076991 34
4.060559614019407 -0.431081669598092 0.071275627889866 32
4.222027411647379 -0.463132938330173 0.074137822545580 25
4.160775095575614 -0.471118198336627 0.073090678159343 19
4.073698587254411 -0.475666611041947 0.071589771205737 33
4.081940280127954 -0.491077830280804 0.071764295270110 36
4.078216696355442 -0.505077689184885 0.071729390457235 34
4.088330782211895 -0.520826479253340 0.071938819334483 34
4.092342569550347 -0.536587385881876 0.072043533773106 33
4.080535575314386 -0.549534588572168 0.071869009708734 34
4.080671725383790 -0.563336574997354 0.071903914521608 33
4.096499930629375 -0.580100741661058 0.072218057837479 33
4.106323751107202 -0.596120382356676 0.072427486714727 33
4.108173758182113 -0.611038881420141 0.072497296340476 34
4.105906594916736 -0.626091986726050 0.072497296340476 33
4.099744550436685 -0.639803782680983 0.072427486714727 34
4.109448825768222 -0.655284844083443 0.072636915591974 33
4.118978234350573 -0.671556189044309 0.072846344469221 34
4.124498974384364 -0.687244686703426 0.072985963720720 33
4.120103573464212 -0.701302136694061 0.072951058907845 33
4.117630471087352 -0.715679709491034 0.072951058907845 33
4.122982999929888 -0.731445784084747 0.073090678159343 33
4.132080367741947 -0.748691477732988 0.073300107036591 31
4.135340975260463 -0.764200726586961 0.073404821475214 31
4.132784056820135 -0.777909809603595 0.073404821475214 31
4.133971230146668 -0.793084703486474 0.073474631100964 31
4.142952990590323 -0.809811815833675 0.073684059978211 31
4.151868201653381 -0.826611268011927 0.073893488855458 30
4.153024027683642 -0.841168744046117 0.073963298481208 30
4.146145498230153 -0.854852770838703 0.073893488855458 31
4.150812486545017 -0.871687329520164 0.074033108106957 30
4.169255610486502 -0.890766947889135 0.074417061048577 26
4.234514019021320 -0.920177051067705 0.075638729499187 18
4.225418414657512 -0.933658306685068 0.075534015060563 19
4.189129427188050 -0.940220476141878 0.074940633241695 18
4.164376166231981 -0.949945497142684 0.074556680300075 17
4.135710216426544 -0.958606156525512 0.074102917732706 27
4.140124708392385 -0.974869962949429 0.074242536984204 32
4.161979607812360 -0.995362349593038 0.074696299551573 32
4.150706929196082 -1.007996671297213 0.074556680300075 30
4.156870855399358 -1.024872645076280 0.074731204364448 30
4.164907295070218 -1.042289367191388 0.074940633241695 30
4.176748984833359 -1.060759109594738 0.075219871744692 30
4.269842626630362 -1.100281925365204 0.076965112388420 27
4.312408303513726 -1.127317765209541 0.077802827897410 23
4.184740988324197 -1.109563967957045 0.075568919873438 30
4.180842392415007 -1.124164680166889 0.075568919873438 30
4.198114942665679 -1.144537500162527 0.075952872815058 30
4.198353798776325 -1.158784678900660 0.076022682440807 29
4.194283307588923 -1.173432608817154 0.076022682440807 30
4.197857140521496 -1.190248180663858 0.076162301692305 29
4.210974299686661 -1.209863959599319 0.076476445008176 28
4.206725431647389 -1.224555632092721 0.076476445008176 29
4.213933545071604 -1.242625991385459 0.076685873885424 27
4.217234513552261 -1.259616966108307 0.076825493136922 27
4.216640025964199 -1.275488143359113 0.076895302762671 27
4.225546135038132 -1.294298782025324 0.077139636452793 25
4.236282092552082 -1.313779414560578 0.077418874955790 25
4.241209720786839 -1.331553742337019 0.077593399020162 27
4.244158988452395 -1.348772797252792 0.077733018271661 27
4.245135981176056 -1.365416342618956 0.077837732710284 26
4.257457421531130 -1.385796734057016 0.078151876026156 27
4.263990114985194 -1.404403006690885 0.078361304903403 27
4.279930310483452 -1.426232702532078 0.078745257845023 26
4.269241012787044 -1.439247317061872 0.078640543406400 27
4.273654454814531 -1.457368102431052 0.078815067470772 24
4.279883702193867 -1.476189223870796 0.079024496348020 25
4.295474090949212 -1.498364652601447 0.079408449289640 22
nan nan nan 0
3.921397983418674 -1.398661024751530 0.072671820404849 6
3.897925911399857 -1.404876865012693 0.072322772276103 18
3.866694186399872 -1.408890318738560 0.071834104895859 8
3.827976421646728 -1.409938384030328 0.071205818264117 7
3.793046936128890 -1.412128851591241 0.070647341258124 7
3.739433284028299 -1.407050486780205 0.069739816123385 7
3.697116607182446 -1.405879807740947 0.069041719865894 7
3.669787132201962 -1.410169247686440 0.068622862111399 7
3.627560143905452 -1.408494809551086 0.067924765853907 7
3.604005747003102 -1.413845853670951 0.067575717725162 6
3.558150268192006 -1.410208277256255 0.066807811841921 6
3.523503173352937 -1.410727618289789 0.066249334835928 7
3.500019111787641 -1.415520882690596 0.065900286707183 7
3.469139964507907 -1.417142627511821 0.065411619326939 7
3.434595369087777 -1.417040832358722 0.064853142320946 7
3.411169340219562 -1.421329994821218 0.064504094192200 6
3.358264643596075 -1.413064067895242 0.063596569057461 7
3.334907105211935 -1.416958133010049 0.063247520928715 7
3.307888093613552 -1.419129634393365 0.062828663174221 8
3.288483173812491 -1.423735222934878 0.062549424671224 8
3.257841083877766 -1.423992954548095 0.062060757290980 8
3.219919577296066 -1.420825100881256 0.061432470659238 8
3.193020307417926 -1.422292042956385 0.061013612904743 9
3.166150297165695 -1.423588624359531 0.060594755150248 9
3.142952299127035 -1.426367869870030 0.060245707021503 8
3.116137598870513 -1.427337105596396 0.059826849267008 9
3.078463901691119 -1.423102082131359 0.059198562635266 9
3.058980057520915 -1.427075863762377 0.058919324132269 9
3.050361537072290 -1.436041513255214 0.058849514506520 9
3.012817810470231 -1.431235525529643 0.058221227874778 9
2.978951678800211 -1.427913828820091 0.057662750868785 10
2.948746221422314 -1.426114597718176 0.057174083488541 10
2.932967219991889 -1.431137419879052 0.056964654611293 10
2.902836499189802 -1.429002002041207 0.056475987231049 10
2.883502702516475 -1.432010506250769 0.056196748728053 10
2.857031928073367 -1.431318758644601 0.055777890973558 10
2.827031894202344 -1.428655931607451 0.055289223593314 12
2.807775065798453 -1.431250181282384 0.055009985090318 11
2.797426757616045 -1.438299324559547 0.054905270651694 13
2.767536317495091 -1.435167434355346 0.054416603271450 13
2.735930155144702 -1.430917791968175 0.053893031078331 11
2.713231354739322 -1.431129853489653 0.053543982949586 13
2.704688324651152 -1.438713862893897 0.053474173323837 11
2.680265889710105 -1.437748305148112 0.053090220382216 13
2.659401113921742 -1.438532725022717 0.052776077066345 11
2.633547763104651 -1.435856852556139 0.052357219311851 14
2.612748525018763 -1.436370656638862 0.052043075995979 13
2.598722395232965 -1.441088326867982 0.051868551931607 13
2.572731330420507 -1.438440276981220 0.051449694177112 13
2.560978495848595 -1.443037220591415 0.051310074925614 14
2.535061053545746 -1.440115113041445 0.050891217171119 13
2.517871803190040 -1.441998778048788 0.050646883480997 14
2.495505078299614 -1.440780528720359 0.050297835352251 14
2.483547466887364 -1.445459142651547 0.050158216100753 14
2.468138154613984 -1.448048054587132 0.049948787223505 14
2.442413824516891 -1.444439509254565 0.049529929469011 14
2.420180328215312 -1.442717026942644 0.049180881340265 15
2.394560679417388 -1.438797212133788 0.048762023585770 15
2.386102815473370 -1.445075230667846 0.048692213960021 15
2.375923499835308 -1.450269898267423 0.048587499521397 15
2.352111499559317 -1.447028649245740 0.048203546579777 16
2.331750358584951 -1.445746475110343 0.047889403263906 16
2.323297880047125 -1.451757640597361 0.047819593638157 18
2.302986988696097 -1.450268306930190 0.047505450322286 18
2.292845381011602 -1.455083925074926 0.047400735883662 19
2.269221091527189 -1.451227432172481 0.047016782942042 19
2.245651888780953 -1.447223885091968 0.046632830000422 19
2.235555196392386 -1.451786519549368 0.046528115561798 17
2.218760979773219 -1.451916501101714 0.046283781871676 17
2.207001562237570 -1.455249401490002 0.046144162620178 19
2.186918049156107 -1.452984877968733 0.045830019304306 17
2.165721537848804 -1.448729685537899 0.045480971175561 19
2.150702056152601 -1.449574818048004 0.045271542298313 17
2.140158520061552 -1.454450228323073 0.045166827859690 19
2.136718478394589 -1.463041676593838 0.045201732672564 16
nan nan nan 0
nan nan nan 0
nan nan nan 0
nan nan nan 0
nan nan nan 0
3.311269125448011 -2.368888003729315 0.071066199012618 1
3.279855289742776 -2.364636143336861 0.070577531632375 13
3.263491223870701 -2.370195023251103 0.070403007568002 18
3.247128412349844 -2.375668544602795 0.070228483503629 17
3.229157501950231 -2.379870408149942 0.070019054626381 17
3.208401360382464 -2.381031933583216 0.069739816123385 17
3.193663913744876 -2.387427615371649 0.069600196871887 17
3.178503151821004 -2.394304270977394 0.069460577620388 17
3.160567936537209 -2.398132314308508 0.069251148743141 17
3.149420043085162 -2.406171925389244 0.069181339117392 17
3.125154110825036 -2.404955280106188 0.068832290988646 17
3.100515685782967 -2.404139872732276 0.068483242859900 17
3.092104782131236 -2.414948045355952 0.068483242859900 18
3.072654370652369 -2.417072313727128 0.068238909169779 18
3.059496399221989 -2.424057654977707 0.068134194731155 17
3.035386013396796 -2.422249558483849 0.067785146602409 16
3.020677663117473 -2.427819296853161 0.067645527350911 17
2.998196115926282 -2.427025038018456 0.067331384035040 16
2.978856837114632 -2.428630740077921 0.067087050344918 15
2.519810708231036 -2.067587234265650 0.056894844985544 16
2.490997704716836 -2.058536562275107 0.056406177605300 34
2.489221373812472 -2.073205133365482 0.056545796856799 55
2.469712733316177 -2.071600610471758 0.056266558353802 39
2.462829478814585 -2.079779082665488 0.056266558353802 37
2.463171175388720 -2.094840844777859 0.056441082418175 25
2.469881822055044 -2.114702491943945 0.056755225734046 19
2.474600633219346 -2.133757900034493 0.057034464237043 21
2.487898457863097 -2.161172911335733 0.057523131617286 22
2.496895062920033 -2.184327313916909 0.057907084558907 24
2.503144016492040 -2.204490036567381 0.058221227874778 24
2.504410040288821 -2.221175411454952 0.058430656752025 50
2.479849112852528 -2.215683857787766 0.058046703810405 40
2.475072885292103 -2.227001725045997 0.058116513436154 31
2.460652745900265 -2.228055383055172 0.057941989371781 27
2.449905136603588 -2.233936353716194 0.057872179746032 27
2.421083396509192 -2.223961852113494 0.057383512365788 25
2.389818412013709 -2.210672945724137 0.056825035359795 22
2.303074444583964 -2.145398256693658 0.054940175464568 19
2.288279417250585 -2.146583805029292 0.054765651400196 24
2.290948031067224 -2.164170746611638 0.055009985090318 19
2.293521623095748 -2.181802356916949 0.055254318780440 21
2.297443939519494 -2.200861506042712 0.055533557283436 19
2.301261003328769 -2.219974487777904 0.055812795786433 22
2.307841152164020 -2.241927533098761 0.056161843915178 40
2.318584285818718 -2.268148492197353 0.056615606482548 55
2.292133432025352 -2.257984538715828 0.056161843915178 36
2.275719653146965 -2.257521957264663 0.055952415037931 28
2.266805942898323 -2.263643092294162 0.055917510225056 25
2.253250367637850 -2.265870165657873 0.055777890973558 25
2.240102745382651 -2.267639317186244 0.055638271722060 25
2.209767802333761 -2.252604820198842 0.055079794716067 27
2.134913599902956 -2.191550112337704 0.053404363698088 24
2.093882018039866 -2.164495054747750 0.052566648189098 58
2.070698772179969 -2.156289303690273 0.052182695247478 39
2.070059500800880 -2.170740054619610 0.052357219311851 50
2.051847820495086 -2.165978856185914 0.052077980808854 48
2.033313384638101 -2.161475785232645 0.051798742305857 48
2.028107141782820 -2.171836797452801 0.051868551931607 47
2.024592759580588 -2.183301842951787 0.051973266370230 27
2.034568729120116 -2.209479009432616 0.052427028937600 19
2.041687542454314 -2.232800702969214 0.052810981879220 17
2.046372841859025 -2.252880803144016 0.053125125195091 21
2.053229243948330 -2.276344097528388 0.053509078136711 27
2.059946596565795 -2.299882510150940 0.053893031078331 45
2.059879686345400 -2.316024309373356 0.054102459955579 47
2.041192857109548 -2.311209808935015 0.053823221452582 39
2.029157321312475 -2.313810469197547 0.053718507013959 30
2.013188844808261 -2.311831190570916 0.053509078136711 29
2.001182894926492 -2.314306590534545 0.053404363698088 29
1.995697614826576 -2.324312273117115 0.053474173323837 27
1.982382609158133 -2.325177545102588 0.053334554072338 27
1.960041584936141 -2.315294629018285 0.052950601130718 24
1.946800894312307 -2.315999412369907 0.052810981879220 24
1.885281491914271 -2.257972849549160 0.051344979738488 21
1.849310344192103 -2.230671919055854 0.050577073855248 27
1.849137890357555 -2.246377037272286 0.050786502732495 16
1.855205675600369 -2.269849661472381 0.051170455674115 16
1.861131952891743 -2.293391810589209 0.051554408615735 17
1.873189551810732 -2.324788409756744 0.052112885621729 21
1.874216319019497 -2.341916290371400 0.052357219311851 64
1.861054007006349 -2.342181740439786 0.052217600060352 37
1.851218708062806 -2.347416933830671 0.052182695247478 37
1.844246200456088 -2.355439083132318 0.052217600060352 30
1.830698119488859 -2.353329537812508 0.052043075995979 29
1.824916944037221 -2.362870795138411 0.052112885621729 29
1.806100904470934 -2.357162021562296 0.051833647118732 29
1.795440507351612 -2.360269029091596 0.051763837492983 29
1.783987510355865 -2.361423278004081 0.051659123054359 27
1.766135175450007 -2.354838136582143 0.051379884551363 27
1.743982437744809 -2.341437214743432 0.050961026796868 27
1.665653382892632 -2.252645430906992 0.048901642837268 27
1.644372814507085 -2.241000687344214 0.048517689895648 39
1.637717611286544 -2.248343317029000 0.048552594708523 46
1.630252831440618 -2.253761822182397 0.048552594708523 45
1.627041153465983 -2.265936043498967 0.048692213960021 46
1.607121389628043 -2.255598319142271 0.048343165831275 46
1.595774037402896 -2.256296583642785 0.048238451392652 45
1.588283114194460 -2.261575955163122 0.048238451392652 45
1.581522609430881 -2.268746772766760 0.048273356205526 40
1.571317946736668 -2.270964625079042 0.048203546579777 28
1.586022520068380 -2.309403644918697 0.048901642837268 10
1.590340875472854 -2.333101547264704 0.049285595778889 9
1.602356666831794 -2.368451332960507 0.049913882410631 11
1.605226875587597 -2.390631781706433 0.050262930539377 22
1.606852685245206 -2.411196882778450 0.050577073855248 27
1.589601258300867 -2.403447933150868 0.050297835352251 22
1.581201974976755 -2.408982034405506 0.050297835352251 16
1.571691972446930 -2.412811219627319 0.050262930539377 14
1.562174516961555 -2.416603385743625 0.050228025726502 14
1.549410565163970 -2.415309100735362 0.050088406475004 14
1.534527042838175 -2.410581432433290 0.049878977597756 16
1.525035242635080 -2.414232606260047 0.049844072784882 17
1.514474619309661 -2.416152551101404 0.049774263159133 21
1.504341202853913 -2.417765706741451 0.049704453533383 22
1.490640029214010 -2.414494375514602 0.049529929469011 24
1.474891006903772 -2.407746549743784 0.049285595778889 21
1.441551455691786 -2.371868083070863 0.048447880269899 18
1.401252384547083 -2.323799525098516 0.047365831070787 24
1.390052393787155 -2.323528508407263 0.047261116632164 18
1.406428421946635 -2.369637439839132 0.048098832141153 10
1.410323731898717 -2.395210430214946 0.048517689895648 12
1.418091898442139 -2.427746052908956 0.049076166901641 28
1.405598576764834 -2.425760469481840 0.048936547650143 30
1.401534031250321 -2.437342382409470 0.049076166901641 28
1.393017579988841 -2.442219800035262 0.049076166901641 25
1.378150680262808 -2.436865352128840 0.048866738024394 25
1.367679413697691 -2.438173062177170 0.048796928398645 25
1.355696530020141 -2.435705931502797 0.048657309147146 25
1.349118905404108 -2.443924681117917 0.048727118772896 25
1.341540097677366 -2.450373120849073 0.048762023585770 27
1.329161837460533 -2.448011575061543 0.048622404334272 27
1.314920392645396 -2.442072182555765 0.048412975457024 27
1.306387958980267 -2.446647233345823 0.048412975457024 27
1.297839607390132 -2.451192472511456 0.048412975457024 28
1.286486814545774 -2.450396292014263 0.048308261018401 28
1.259458366075885 -2.419397010896083 0.047610164760909 25
1.201478813831398 -2.327822556899309 0.045725304865683 38
1.195167779010827 -2.335562627613108 0.045795114491432 44
1.191531520661439 -2.348636929710781 0.045969638555805 46
1.182837795578652 -2.350788963217797 0.045934733742930 45
1.170161944305187 -2.345956314024214 0.045760209678557 48
1.160602772607802 -2.346239031206773 0.045690400052808 39
1.148884314734200 -2.343094099204323 0.045550780801310 42
1.140288728718019 -2.347289232610041 0.045550780801310 41
1.140763218672306 -2.369272564444326 0.045899828930056 28
1.152274703731853 -2.412542461733486 0.046667734813296 12
1.160956979743267 -2.452698793009930 0.047365831070787 21
1.159168028381870 -2.473434879276140 0.047679974386659 25
1.153053847168324 -2.482907056062349 0.047784688825282 24
1.145247887344413 -2.486517222954032 0.047784688825282 21
1.130749855526396 -2.477765259030940 0.047540355135160 19
1.118798521695209 -2.474408825980522 0.047400735883662 18
1.112606883520000 -2.483773974204092 0.047505450322286 16
1.102307882177781 -2.483986955054403 0.047435640696537 15
1.098458824397796 -2.498803345293087 0.047645069573784 13
1.082908740102412 -2.488144115331099 0.047365831070787 13
1.068675617892658 -2.479054656155518 0.047121497380665 12
1.057306829645762 -2.475229074472075 0.046981878129167 12
1.054892976529530 -2.493638144343191 0.047261116632164 13
1.045409467882321 -2.495460825054002 0.047226211819289 13
1.030562574807580 -2.484318168251082 0.046946973316293 13
1.014717730622886 -2.469225903097519 0.046597925187547 13
1.000063323943960 -2.457934890790636 0.046318686684550 12
0.971304196310596 -2.411329333283608 0.045376256736937 13
0.958437101711046 -2.403560334113713 0.045166827859690 16
0.959161418706574 -2.431239217887429 0.045620590427059 13
0.968125780014126 -2.479277737544060 0.046458305936049 27
0.958744726820425 -2.480776776862881 0.046423401123174 27
0.947936322704659 -2.478505054939567 0.046318686684550 26
0.937155486281741 -2.476188172030003 0.046213972245927 26
0.922895957291986 -2.464462832393719 0.045934733742930 26
0.912633205254982 -2.461884693074918 0.045830019304306 26
0.901968487204927 -2.459423112151343 0.045725304865683 27
0.896787843044571 -2.471955657019692 0.045899828930056 30
0.886802839972313 -2.471306604277908 0.045830019304306 30
0.875926188995867 -2.466696109936161 0.045690400052808 31
0.862672452349335 -2.456531476494804 0.045446066362686 34
0.856716241061150 -2.467083952274252 0.045585685614185 34
0.845501743962650 -2.462494153497278 0.045446066362686 35
0.839682825215768 -2.475044952069912 0.045620590427059 37
0.825315662708432 -2.460897678234165 0.045306447111188 34
0.815261856556377 -2.457926953472712 0.045201732672564 38
0.805431290108128 -2.456957375787552 0.045131923046815 38
0.793956889484491 -2.452283048556855 0.044992303795317 39
0.778080347222196 -2.432184240795634 0.044573446040822 50
0.767598719207284 -2.427124603580994 0.044433826789324 64
0.759121796800792 -2.429789236262848 0.044433826789324 67
0.748276989621700 -2.424781138573394 0.044294207537826 49
0.742140306410547 -2.435029650874444 0.044433826789324 64
0.734788554838683 -2.441435071023581 0.044503636415073 67
0.725692262309144 -2.442068236625326 0.044468731602198 66
0.713507970999235 -2.428986962505190 0.044189493099202 63
0.707252444039157 -2.439145118724763 0.044329112350700 60
0.698431121538290 -2.443765496615393 0.044364017163575 71
0.691524927616672 -2.451962439841697 0.044468731602198 66
0.681134714643311 -2.444491260709756 0.044294207537826 49
0.672597698058839 -2.446853971888095 0.044294207537826 41
0.666145638128070 -2.456906922095301 0.044433826789324 42
0.658081921935612 -2.461149064142849 0.044468731602198 46
0.649996700545276 -2.465364824042497 0.044503636415073 46
0.638871768149163 -2.457941779957402 0.044329112350700 45
0.626814029304997 -2.446596964143641 0.044084778660578 45
0.620717618060953 -2.458464307804984 0.044259302724951 44
0.615511473197875 -2.474199881316709 0.044503636415073 48
0.607347131349748 -2.478275565869647 0.044538541227948 49
0.598223440216793 -2.478436632621666 0.044503636415073 55
0.589106030678188 -2.478564224814092 0.044468731602198 56
0.578172574195465 -2.470869988005599 0.044294207537826 52
0.570441732594345 -2.476770490718887 0.044364017163575 52
0.562667677991630 -2.480598681744155 0.044398921976449 50
0.551827650763426 -2.472789203810595 0.044224397912076 53
0.543621367182401 -2.476653573527198 0.044259302724951 50
0.532441503346511 -2.466807988905523 0.044049873847704 50
0.526733033501042 -2.482344523751163 0.044294207537826 52
0.518881318064309 -2.488083200326098 0.044364017163575 53
0.509020673051070 -2.481954503417811 0.044224397912076 55
0.500353933923062 -2.483716196234391 0.044224397912076 52
0.491681098140272 -2.485447625752933 0.044224397912076 52
0.484527140427805 -2.495000858550948 0.044364017163575 52
0.475066284815588 -2.492748292188787 0.044294207537826 52
0.463789549957800 -2.480631948105955 0.044049873847704 49
0.456209623027454 -2.488136481825387 0.044154588286327 52
0.448582942621059 -2.495618251598536 0.044259302724951 49
0.440562675807925 -2.501107646320558 0.044329112350700 50
0.432849566481572 -2.508541984466988 0.044433826789324 52
0.422091628402538 -2.498207129095146 0.044224397912076 52
0.412716170939915 -2.495719482349321 0.044154588286327 53
0.404640708080860 -2.501092981077100 0.044224397912076 53
0.397157705349606 -2.510390724780218 0.044364017163575 52
0.389136691075629 -2.513670099950676 0.044398921976449 50
0.378565823408102 -2.503149856889711 0.044189493099202 49
0.370702258141546 -2.510390778143386 0.044294207537826 52
0.361651886152785 -2.509690225379307 0.044259302724951 49
0.353445836725631 -2.514897805140304 0.044329112350700 49
0.346836170266710 -2.531965790848848 0.044608350853697 49
0.336144539793388 -2.519286145388849 0.044364017163575 52
0.326060782333221 -2.510528959188458 0.044189493099202 60
0.318799184131473 -2.523555391887493 0.044398921976449 59
0.309988389697659 -2.524652834347721 0.044398921976449 60
0.302594449370847 -2.537633286005696 0.044608350853697 56
0.292355576900698 -2.526755419976851 0.044398921976449 60
0.283087965568018 -2.523786071272437 0.044329112350700 63
0.274708515105371 -2.528734855111530 0.044398921976449 60
0.266297959758675 -2.533655842559928 0.044468731602198 60
0.258058473462770 -2.540538335113665 0.044573446040822 55
0.248603359322878 -2.535453194528164 0.044468731602198 50
0.239751461464426 -2.536305535347696 0.044468731602198 48
0.231077879862909 -2.539118437525886 0.044503636415073 48
0.221690439878984 -2.533933322838940 0.044398921976449 42
0.214568901487693 -2.544580396533466 0.044573446040822 46
0.205524281911758 -2.543320681292460 0.044538541227948 44
0.196028741269370 -2.536047607661117 0.044398921976449 44
0.187763689732691 -2.544693520871080 0.044538541227948 45
0.178715340278531 -2.549354216695523 0.044608350853697 42
0.170878351430929 -2.565924724798838 0.044887589356693 45
0.161105913337877 -2.546520214534504 0.044538541227948 44
0.152454500377449 -2.551059332973025 0.044608350853697 42
0.143998004447044 -2.559562109792754 0.044747970105195 46
0.134851881995405 -2.556055326454902 0.044678160479446 44
0.126070764645675 -2.568516160475421 0.044887589356693 44
0.116557837147219 -2.556954855404322 0.044678160479446 42
0.107799863466293 -2.561341993683802 0.044747970105195 45
0.098858454657511 -2.561702680857830 0.044747970105195 44
0.091235162246046 -2.573991254345413 0.044957398982442 44
0.082377417121232 -2.578291393856286 0.045027208608191 45
0.072978828986349 -2.564571033259530 0.044782874918069 45
0.064225975398815 -2.572806443089269 0.044922494169568 46
0.055287738923666 -2.575014193786404 0.044957398982442 44
0.046370817892998 -2.579190240702087 0.045027208608191 44
0.036945919693169 -2.581342364924121 0.045062113421066 42
0.027978404955153 -2.585454760458644 0.045131923046815 42
0.018894679576408 -2.577538105185429 0.044992303795317 42
0.009912633949346 -2.581587717979424 0.045062113421066 42
0.001812073718405 -2.595603984092913 0.045306447111188 41
-0.007237117650366 -2.591595120916292 0.045236637485439 39
-0.016722826618558 -2.589551534616232 0.045201732672564 39
-0.025861413441252 -2.599475366803726 0.045376256736937 34
-0.034507966389112 -2.601374833941157 0.045411161549812 30
-0.043554745250205 -2.599239115489518 0.045376256736937 23
-0.053407793471288 -2.615056248601725 0.045655495239934 20
-0.062296666978449 -2.604858269953339 0.045480971175561 19
-0.071114998978274 -2.594630220815768 0.045306447111188 16
-0.080665638734953 -2.610356105973775 0.045585685614185 16
-0.089184661704665 -2.606077205523587 0.045515875988435 16
-0.098507132100466 -2.611744839499913 0.045620590427059 17
-0.107376191665714 -2.605391075922456 0.045515875988435 19
-0.116470049539589 -2.605000390133033 0.045515875988435 23
-0.125947649269607 -2.612567466190655 0.045655495239934 24
-0.135272967891756 -2.616105965103994 0.045725304865683 26
-0.143947544122785 -2.615642999538729 0.045725304865683 33
-0.153427523018450 -2.621113428394695 0.045830019304306 37
-0.162947442318534 -2.626549472459602 0.045934733742930 34
-0.197356581074624 -3.011079558474913 0.052671362627722 21
-0.214064795342864 -3.100144845041617 0.054242079207077 24
-0.225029729830245 -3.101373184526207 0.054276984019952 24
-0.235702496859421 -3.098574854641651 0.054242079207077 22
-0.246675739496758 -3.099726615130667 0.054276984019952 24
-0.257614420563487 -3.106862990800550 0.054416603271450 24
-0.269318820455557 -3.115906157406643 0.054591127335823 22
-0.279835417918980 -3.110963767836788 0.054521317710074 22
-0.290879106219757 -3.111959023533057 0.054556222522948 24
-0.302319253913151 -3.116895771546409 0.054660936961572 24
-0.313797403752711 -3.121790497907374 0.054765651400196 27
-0.323190737033150 -3.116811208974415 0.054695841774447 24
-0.335347608504735 -3.127593866333163 0.054905270651694 26
-0.347133382479369 -3.124295705870548 0.054870365838819 26
-0.356442782087951 -3.109158172192128 0.054626032148697 26
-0.369875214233464 -3.129739642116595 0.055009985090318 26
-0.380797790938119 -3.128429469231648 0.055009985090318 26
