# This PCD file was generated using the MATLABÂ® pcwrite function
# from Computer Vision ToolboxÂ®.
# .PCD v.7 - Point Cloud Data file format
VERSION .7
FIELDS x y z intensity
SIZE 8 8 8 1
TYPE F F F U
COUNT 1 1 1 1
WIDTH 870
HEIGHT 1
VIEWPOINT 0 0 0 1 0 0 0
POINTS 870
DATA ascii
-3.308724161596753 -1.069326547288239 -0.182233799637930 36
-3.304641984910991 -1.055916955359816 -0.181815111987987 36
-3.300689249639579 -1.041970160105885 -0.181396424338043 34
-3.307939585739668 -1.032208817084217 -0.181605768163015 36
-3.315339830826663 -1.021832212834880 -0.181815111987987 34
-3.311243691336840 -1.007926859360019 -0.181396424338043 37
-3.303265526074622 -0.992912711364214 -0.180768392863128 36
-3.310540741884602 -0.982512623402573 -0.180977736688100 36
-3.304366751762328 -0.968142854967111 -0.180454377125670 40
-3.315567903622341 -0.958243398572634 -0.180873064775614 41
-3.311209975969420 -0.944472716819695 -0.180454377125670 41
-3.302951291678484 -0.929661901020650 -0.179826345650755 41
-3.298478561666679 -0.915989121374253 -0.179407658000811 40
-3.309044354906852 -0.907735612757918 -0.179826345650755 41
-3.312192783677578 -0.896179362161433 -0.179826345650755 41
-3.307735860983869 -0.881975263945630 -0.179407658000811 42
-3.299204665389043 -0.867376746872102 -0.178779626525896 41
-3.302062850187149 -0.856431420811489 -0.178779626525896 41
-3.308902297608158 -0.845889196866935 -0.178988970350868 41
-3.315708334009593 -0.835309647960482 -0.179198314175840 41
-3.310850160935062 -0.821805972827855 -0.178779626525896 41
-3.305797076535672 -0.808923398259373 -0.178360938875953 41
-3.308600606093548 -0.797379084777559 -0.178360938875953 41
-3.307614185134251 -0.784325449975631 -0.178151595050981 42
-3.314221772416456 -0.773683022124699 -0.178360938875953 41
-3.309116083289282 -0.760320526189330 -0.177942251226009 42
-3.309801848744256 -0.748324473362330 -0.177837579313523 45
-3.316164259852892 -0.738212635244912 -0.178046923138495 46
-3.322622981811859 -0.727486923610259 -0.178256266963467 47
-3.321112252588202 -0.715623293967874 -0.178046923138495 48
-3.323590010699700 -0.704026088961258 -0.178046923138495 48
-3.306473907589405 -0.688349639507118 -0.177000204013636 46
-3.312770042957569 -0.677604175487240 -0.177209547838608 50
-3.323064132189435 -0.667029971825333 -0.177628235488551 48
-3.321453137314613 -0.654653796677133 -0.177418891663580 48
-3.323605785059604 -0.643635861647875 -0.177418891663580 48
-3.314059387442903 -0.629793115439761 -0.176790860188664 47
-3.312310720178846 -0.617488996717346 -0.176581516363692 50
-3.330163565438272 -0.608796488416554 -0.177418891663580 50
-3.320472733006742 -0.595054469029928 -0.176790860188664 50
-3.322529631275010 -0.583460230909785 -0.176790860188664 50
-3.312636431181397 -0.570405586043253 -0.176162828713749 48
-3.314607336532816 -0.558838851890597 -0.176162828713749 47
-3.312691984839113 -0.546036797970788 -0.175953484888777 50
-3.322464984139887 -0.535741809007205 -0.176372172538721 50
-3.328168965598115 -0.525343986839363 -0.176581516363692 51
-3.314191219474090 -0.511287157713344 -0.175744141063805 48
-3.319905671042316 -0.500310610057960 -0.175953484888777 51
-3.321631854979914 -0.488718928565480 -0.175953484888777 52
-3.323317565881603 -0.477121292187085 -0.175953484888777 51
-3.321006848902699 -0.464963984006410 -0.175744141063805 50
-3.314614966586916 -0.452867098234397 -0.175325453413862 52
-3.320135186621273 -0.441821092205486 -0.175534797238834 55
-3.321582062931042 -0.430808697884666 -0.175534797238834 51
-3.323065629707400 -0.419211588121900 -0.175534797238834 51
-3.324579796597984 -0.407029127963623 -0.175534797238834 52
-3.318047171744809 -0.394478534572831 -0.175116109588890 48
-3.323305191558458 -0.383931750635218 -0.175325453413862 51
-3.324625116754668 -0.372328911621475 -0.175325453413862 51
-3.325904532443018 -0.360721535897444 -0.175325453413862 52
-3.331116131599049 -0.349526612375806 -0.175534797238834 50
-3.312445215708961 -0.335881829700427 -0.174488078113975 51
-3.329499569037257 -0.325873603051769 -0.175325453413862 52
-3.322608317476346 -0.314078958109281 -0.174906765763918 55
-3.327662493463700 -0.302841010692741 -0.175116109588890 55
-3.324720014816073 -0.290875310694149 -0.174906765763918 55
-3.315763831794733 -0.278432468299714 -0.174383406201489 30
-3.274908202955169 -0.263492857673239 -0.172185296039285 7
nan nan nan 0
-3.189024511047707 -0.234187321169706 -0.167579731889906 57
-3.185837761029543 -0.222775477998048 -0.167370388064934 57
-3.162644855525103 -0.210617066763723 -0.166114325115104 45
-3.155387594306053 -0.199073065542460 -0.165695637465160 53
-3.172013048051322 -0.189007879866315 -0.166533012765047 53
-3.168665232920522 -0.177710660431619 -0.166323668940075 55
-3.165218956002157 -0.167543998866470 -0.166114325115104 55
-3.165784510101864 -0.156494302102833 -0.166114325115104 57
-3.170327168996574 -0.145072666868974 -0.166323668940075 57
-3.174805208023940 -0.134173942192438 -0.166533012765047 57
-3.183237260637433 -0.123400454691350 -0.166951700414991 55
-3.179656579357338 -0.112147331080142 -0.166742356590019 55
-3.172008292011213 -0.101901092057031 -0.166323668940075 55
-3.172344668242408 -0.090828096007099 -0.166323668940075 53
-3.176635647082334 -0.079854375867563 -0.166533012765047 57
-3.188875785820544 -0.069024690481103 -0.167161044239963 55
-3.189097299231506 -0.057893016184321 -0.167161044239963 55
-3.173303599059355 -0.046526394092529 -0.166323668940075 57
-3.177434699334765 -0.036048399725781 -0.166533012765047 55
-3.185529963590088 -0.025019608275701 -0.166951700414991 57
-3.185595416476128 -0.014455872675935 -0.166951700414991 57
-3.193615501048682 -0.003344347554658 -0.167370388064934 55
-3.185618705972916 0.007783950409896 -0.166951700414991 57
-3.185572127036095 0.018903787431773 -0.166951700414991 55
-3.189481073639132 0.030061041006144 -0.167161044239963 53
-3.205333449549077 0.041400582531292 -0.167998419539850 40
nan nan nan 0
-2.979341219913706 0.058246650592714 -0.156170493428944 3
-2.881291569949724 0.065888793842620 -0.151041569717136 4
-2.819150490720366 0.074314427868096 -0.147796740430073 6
-2.792935614600888 0.082892393905105 -0.146436005567757 7
nan nan nan 0
-2.784305188559940 0.102095836478697 -0.146017317917813 46
-2.761979693897527 0.110932563870059 -0.144865926880469 28
-2.773568881734707 0.120611634409678 -0.145493958355384 25
-2.779116145789214 0.130573668496543 -0.145807974092842 23
-2.782632865101314 0.140475196836102 -0.146017317917813 24
-2.770159430953811 0.149541574437608 -0.145389286442898 24
-2.781556410545136 0.160383533516838 -0.146017317917813 23
-2.784966688900840 0.170335859724993 -0.146226661742785 22
-2.796345233046612 0.180341444758061 -0.146854693217700 23
-2.791713372328469 0.189830419753767 -0.146645349392729 23
-2.783065042260776 0.199004356589461 -0.146226661742785 23
-2.790320084670073 0.209315471449869 -0.146645349392729 23
-2.803587019878871 0.219170097242864 -0.147378052780130 22
-2.802804893057216 0.228955106982272 -0.147378052780130 21
-2.813887019392793 0.240245793129108 -0.148006084255045 20
-2.809052434102001 0.249712927146092 -0.147796740430073 16
-2.828097076163553 0.260861174464276 -0.148843459554932 12
-2.847050911443584 0.272635364513846 -0.149890178679791 4
nan nan nan 0
nan nan nan 0
-3.648326897624105 0.388605666369537 -0.192282303236576 1
-3.523861201051581 0.387792894355536 -0.185792644662451 2
nan nan nan 0
nan nan nan 0
-3.372874186231442 0.406968078618581 -0.178046923138495 1
nan nan nan 0
nan nan nan 0
nan nan nan 0
-3.398612681096540 0.457698551317897 -0.179721673738269 1
-3.484045998258814 0.481592100630244 -0.184327237887648 1
-3.237216140405973 0.458418531860718 -0.171347920739398 1
-3.142698851447705 0.456229697050008 -0.166428340852561 7
-3.107422498618404 0.462744150443332 -0.164648918340301 2
-3.034708582071826 0.462749622126384 -0.160880729490809 3
-2.989741968249580 0.466042914204708 -0.158577947416120 4
-2.930899064749509 0.467355554989703 -0.155542461954029 8
nan nan nan 0
-2.925509687116408 0.487987872815563 -0.155437790041543 23
-2.921819587227932 0.497861348272289 -0.155333118129057 32
-2.945644000907379 0.512508006135598 -0.156693852991374 31
-2.928286473533339 0.518971181553742 -0.155856477691487 32
-2.916630164880002 0.527412650326435 -0.155333118129057 14
-2.946007631442619 0.544414882822908 -0.157007868728831 57
-2.946052046988632 0.555064848470271 -0.157112540641317 53
-2.950178388373168 0.565445272438114 -0.157426556378775 33
-2.944266181575560 0.574974260386743 -0.157217212553803 23
-2.938221390974919 0.584981697811686 -0.157007868728831 23
-2.916587112979149 0.591266210955912 -0.155961149603973 32
-2.953626318284195 0.609516463434212 -0.158054587853690 22
-2.924115992421999 0.614076128204761 -0.156589181078888 32
-2.943549326321987 0.628356010091270 -0.157740572116233 26
-2.939386237725901 0.638203312773072 -0.157635900203747 23
-2.931289707023395 0.647168044766333 -0.157321884466289 28
-2.936807921158957 0.659145770013315 -0.157740572116233 38
-2.955908810063593 0.674279208216917 -0.158891963153577 39
-2.949645774718364 0.683691180292034 -0.158682619328606 29
-2.927920650721095 0.688894466553414 -0.157635900203747 27
-2.946866302558675 0.704217005605860 -0.158787291241092 33
-2.948272032313858 0.715441188018683 -0.158996635066063 34
-3.114473524493618 0.767293956624491 -0.168103091452336 9
-3.123401759179991 0.781068024506859 -0.168731122927251 7
-3.072259019109258 0.779683622050235 -0.166114325115104 4
-2.992420893624050 0.769436609986205 -0.161927448615668 2
-2.970390927148293 0.774836196104446 -0.160880729490809 2
-2.944498324563956 0.779069690381894 -0.159624666540979 2
-2.860741935546634 0.767603874202109 -0.155228446216571 3
-2.836711063220287 0.772312504670826 -0.154077055179227 8
nan nan nan 0
-2.831250219946200 0.792097502282320 -0.154077055179227 20
-2.847683170839170 0.807423787836985 -0.155123774304085 11
-2.842927786665051 0.816807613640727 -0.155019102391600 11
-2.849647592182602 0.829517415668398 -0.155542461954029 13
-2.858375954442705 0.842350093515704 -0.156170493428944 13
-2.857332008854174 0.852893817467849 -0.156275165341430 14
-2.858161072852104 0.864018448890914 -0.156484509166402 14
-2.843668966356486 0.870482376698481 -0.155856477691487 14
-2.846336287500402 0.882177145158834 -0.156170493428944 13
-2.852767856499307 0.895096974276569 -0.156693852991374 14
-2.855494912306310 0.906364901653857 -0.157007868728831 14
-2.854215254201946 0.916937801736930 -0.157112540641317 15
-2.850997155110572 0.926895285954492 -0.157112540641317 16
-2.834463697783320 0.932472462032499 -0.156379837253916 20
-2.844621981365055 0.946279785638465 -0.157112540641317 24
-2.848873274292294 0.958751781816415 -0.157531228291261 24
-2.858744176460220 0.973195900877303 -0.158263931678662 20
-2.857218117914226 0.983819095189394 -0.158368603591148 18
-2.842449555623816 0.989845662536547 -0.157740572116233 23
-2.852164052342690 1.004405515454428 -0.158473275503634 21
-2.867634138431303 1.020554662630613 -0.159519994628493 19
-2.854657763743912 1.027177259256782 -0.158996635066063 22
-2.856685640852509 1.039183942277615 -0.159310650803521 19
-2.856789876126117 1.050527950592964 -0.159519994628493 20
-2.854977561140636 1.061189469988817 -0.159624666540979 23
-2.871822361296254 1.078875055077454 -0.160776057578323 21
-2.862626882877367 1.086266662728849 -0.160462041840866 23
-2.879331033271566 1.104118607375408 -0.161613432878211 16
-3.054450940724464 1.182903897310535 -0.171661936476856 4
-3.033563757873285 1.187008696820389 -0.170719889264483 4
-3.014334689226025 1.192242556184653 -0.169882513964596 4
-2.967496854419251 1.185712664728437 -0.167475059977420 6
-2.924651998200683 1.179855168773070 -0.165276949815217 10
-2.924214913707010 1.191564276516689 -0.165486293640188 14
-2.919827970925532 1.202274056452239 -0.165486293640188 15
-2.904548515970193 1.207857471629494 -0.164858262165273 14
-2.898473141479605 1.217215553063699 -0.164753590252787 16
-2.886851571944318 1.224206698784618 -0.164334902602844 19
-2.884827673707393 1.234055476607600 -0.164439574515330 18
-2.889670176184639 1.248077522932568 -0.164962934077759 20
-2.894229494989058 1.262653522132107 -0.165486293640188 27
-2.900771378589555 1.277578741270848 -0.166114325115104 32
-2.882141077103930 1.280199336638624 -0.165276949815217 35
-2.886767058242540 1.294337749142776 -0.165800309377646 36
-2.894968522838195 1.310170984045759 -0.166533012765047 34
-2.899461060124075 1.324417505656341 -0.167056372327477 37
-2.903655608298733 1.339218108395723 -0.167579731889906 32
-2.886288132661894 1.343445899295912 -0.166847028502505 36
-2.894235418049328 1.359456648212270 -0.167579731889906 32
-2.900301149618151 1.374683741762968 -0.168207763364821 31
-2.911944097659136 1.392046663617934 -0.169149810577194 24
-2.887279002441626 1.392658067542712 -0.167998419539850 32
-2.897013230147796 1.409214255792733 -0.168835794839737 35
-2.899248424232254 1.422837831498707 -0.169254482489680 35
-2.913953001762076 1.442697383996131 -0.170405873527025 31
-2.903538915761230 1.450182927969364 -0.170091857789567 35
-2.919863149300117 1.471093157967057 -0.171347920739398 24
-2.898685612319841 1.473132566742532 -0.170405873527025 32
-2.913597679899712 1.492246851113516 -0.171557264564370 16
-2.931439242164810 1.514324712527165 -0.172917999426686 40
-3.106804780323902 1.618678814298312 -0.183594534500247 20
-3.097599536581732 1.627655670837549 -0.183385190675275 20
-3.074251260538952 1.629106463331148 -0.182338471550416 19
-3.054453829177634 1.632296896242208 -0.181501096250529 20
-3.038188176427226 1.637264040726626 -0.180873064775614 20
-3.014905621917818 1.638323098884413 -0.179826345650755 20
-3.002449286949552 1.644474132221844 -0.179407658000811 20
-2.965220211516205 1.637564802257012 -0.177523563576065 20
-2.947271118904418 1.641103879535251 -0.176790860188664 22
-2.938041486251572 1.649426322435577 -0.176581516363692 19
-2.921837089601150 1.653769147428559 -0.175953484888777 18
-2.926454813753800 1.669897359461327 -0.176581516363692 6
-2.941678152643228 1.691539961586906 -0.177837579313523 2
-2.939211517614893 1.703801322889754 -0.178046923138495 2
-2.960837027937867 1.730173463552360 -0.179721673738269 2
-2.958221350366824 1.742525543902453 -0.179931017563241 2
-2.955555474109910 1.754880420330078 -0.180140361388213 3
-2.963122015353243 1.773391942282413 -0.180977736688100 3
-2.946652546703000 1.777534458973508 -0.180349705213184 2
-2.954082446696526 1.796110280571496 -0.181187080513072 2
-2.961418400932843 1.814759530103744 -0.182024455812959 2
-2.951667085626999 1.822986747258196 -0.181815111987987 18
-2.942214013288789 1.830654540042167 -0.181605768163015 13
-2.947650661528209 1.848340947819142 -0.182338471550416 13
-2.949622755012998 1.863953635107803 -0.182861831112846 12
-2.953206323414780 1.880675379131253 -0.183489862587761 14
-2.958389872654651 1.898523480908236 -0.184222565975162 15
-2.960130403993916 1.914261459244289 -0.184745925537592 16
-3.057176912278243 1.992188313991003 -0.191235584111717 12
-3.035178615243546 1.992981470907998 -0.190293536899344 10
-3.020223608499408 1.997526629223332 -0.189770177336914 11
-2.999936422002562 1.999196303582242 -0.188932802037027 13
-2.964751296701868 1.990728349433205 -0.187153379524767 14
-2.964401262796584 2.005541790326450 -0.187572067174711 10
-2.995340032354981 2.041750688039741 -0.189979521161886 3
-3.031000839293053 2.081591756400895 -0.192700990886519 2
-3.014589411201102 2.084288526125175 -0.192072959411604 2
-2.997462401728897 2.087949230654076 -0.191444927936689 2
-3.035931869725183 2.130523821389615 -0.194375741486293 1
-2.948565124231011 2.084611558571714 -0.189246817774485 5
-3.011223291382252 2.144714459852962 -0.193747710011378 2
-3.010209513233246 2.159869925819444 -0.194166397661322 1
-2.953345886438259 2.136295169348122 -0.191026240286745 6
-3.000752809030263 2.186582544444959 -0.194585085311265 5
-2.999926406678766 2.201247619656253 -0.195003772961209 7
-3.011497928725523 2.225951999053451 -0.196259835911039 2
-3.004099847655359 2.235926247022745 -0.196259835911039 8
-2.999472735019518 2.248795049195988 -0.196469179736011 13
-3.018301751854428 2.280240344011810 -0.198248602248271 8
-2.973767636239324 2.262944164203650 -0.195841148261096 13
-2.998355575904159 2.296564769369074 -0.197934586510814 13
-3.004552894491693 2.317996977728946 -0.198876633723187 8
-3.010636948945252 2.339500300575915 -0.199818680935560 8
-3.010316166909529 2.356150173917661 -0.200342040497989 7
-3.011069818291786 2.374588296851366 -0.200970071972904 7
-3.009018369270530 2.390053351055179 -0.201388759622848 7
-2.994836878643129 2.395028830826528 -0.200970071972904 11
-2.997346551958789 2.414238107120487 -0.201702775360306 15
-3.005962735425176 2.438527059601822 -0.202854166397650 15
-3.005165687798634 2.455323353616000 -0.203377525960080 17
-3.007372397146364 2.474681854129506 -0.204110229347481 16
-3.009480444393053 2.494085569447120 -0.204842932734882 17
-2.961320435011619 2.470783720881532 -0.202121463010249 11
nan nan nan 0
-2.976015647204403 2.518491687421895 -0.204319573172453 11
-2.879041397254373 2.453724133761209 -0.198248602248271 8
-2.850756563060078 2.446848214713389 -0.196887867385955 7
-2.821044048239653 2.438498829152950 -0.195422460611152 13
-2.824566395371840 2.458822229227706 -0.196259835911039 12
-3.036738053447365 2.662210305079303 -0.211646607046465 6
-3.038843436148306 2.680986683868084 -0.212379310433866 5
-3.047383535168484 2.707496540500697 -0.213635373383697 5
-3.043867818518475 2.723444429824589 -0.214054061033640 5
-3.047696754441093 2.746085425912365 -0.214996108246013 4
-3.040052994260294 2.757518711897387 -0.215100780158499 12
-3.055478012984286 2.791012914670782 -0.216880202670759 23
-3.046208263419801 2.804077170848729 -0.216984874583245 23
-3.048119552063230 2.825555638062309 -0.217822249883132 17
-3.046034048576900 2.842461216929101 -0.218345609445562 12
-3.050648068472791 2.866753803256861 -0.219392328570421 9
-3.053678753344496 2.889740271066036 -0.220334375782794 11
-3.049356585099991 2.905893408556545 -0.220753063432737 12
-3.045978587419480 2.920988445972536 -0.221171751082681 17
-3.064498036628485 2.959351354390440 -0.223265189332398 5
-3.044126309172295 2.960283484145429 -0.222532485944997 8
-3.029493484461756 2.966699206037308 -0.222218470207540 8
-3.017697214490545 2.975853656056183 -0.222113798295054 27
-2.952020494899191 2.931483109594911 -0.218031593708104 20
-2.941769724514915 2.941769724514914 -0.218031593708104 28
-2.959629850925635 2.980364426679306 -0.220125031957822 6
-3.052122303955660 3.093957991599589 -0.227766081569292 2
-3.077642888211994 3.141688358404866 -0.230487551293925 2
nan nan nan 0
-3.049798063205700 3.154850906808124 -0.229964191731495 59
-3.044299573335934 3.171240740889056 -0.230382879381439 28
-3.058017238640824 3.207869483170172 -0.232266973806185 26
-3.053103260261695 3.226309523723590 -0.232790333368614 24
-3.048661368062758 3.244224496481800 -0.233313692931044 28
-3.054812070546051 3.271303141451757 -0.234569755880874 27
-3.056954911170161 3.296591504535935 -0.235616475005733 38
-3.060311185238006 3.323403741214203 -0.236767866043078 19
-3.064865127554636 3.351753326115495 -0.238023928992909 31
-3.065230346732907 3.375739057404159 -0.238965976205282 13
-6.339574858728512 7.030933855707207 -0.496144865183108 8
-6.358865763355849 7.099525870195336 -0.499494366382656 1
nan nan nan 0
nan nan nan 0
-3.980149234547347 4.540088593259831 -0.316423191444838 5
nan nan nan 0
nan nan nan 0
nan nan nan 0
nan nan nan 0
nan nan nan 0
nan nan nan 0
nan nan nan 0
nan nan nan 0
nan nan nan 0
nan nan nan 0
nan nan nan 0
nan nan nan 0
nan nan nan 0
nan nan nan 0
nan nan nan 0
nan nan nan 0
nan nan nan 0
nan nan nan 0
nan nan nan 0
-7.617866090952582 10.007123179053639 -0.659119032923634 1
-7.537128454792460 9.973104244447116 -0.655141500249171 1
-7.478297162633568 9.967401054240039 -0.653048061999453 1
-7.431528347748297 9.977426755707265 -0.652001342874594 3
-7.377656078239472 9.977612044702697 -0.650326592274820 1
-7.316157613840170 9.963385879639690 -0.647814466375159 1
-7.274275357710869 9.979179512298670 -0.647186434900243 1
-7.227688652054701 9.988330001389492 -0.646139715775385 1
-7.139179645908510 9.938879840019426 -0.641324807801034 1
-7.104442986603710 9.963739676496788 -0.641324807801034 1
-7.058081293220424 9.972175711822022 -0.640278088676175 1
-6.991639570565240 9.955481990990563 -0.637556618951542 3
-4.183701588759384 6.001659047500231 -0.383413215435807 1
nan nan nan 0
nan nan nan 0
-6.948230582260671 10.189544870547026 -0.646349059600356 4
-6.955159302667272 10.276590407226568 -0.650326592274820 4
-6.974928541034932 10.383703033479819 -0.655560187899114 4
nan nan nan 0
nan nan nan 0
nan nan nan 0
nan nan nan 0
nan nan nan 0
-1.149134871974780 1.789961519016447 -0.111475586797470 3
-4.278555418552044 6.715986731399023 -0.417326915081234 5
-4.241212062549970 6.708934071623801 -0.415966180218918 10
nan nan nan 0
-4.183717609560851 6.721423420991706 -0.414919461094059 40
-4.153932956619420 6.725790630346381 -0.414291429619143 40
-4.122211831608224 6.724203737500308 -0.413349382406770 36
-4.084184097049057 6.714662452575644 -0.411883975631968 38
-4.057624820776931 6.723747986199914 -0.411569959894510 43
-4.032077891877751 6.734443578899267 -0.411360616069538 38
-4.001405828730413 6.736456940493912 -0.410627912682137 36
-3.972796898162691 6.741779814074277 -0.410104553119708 40
-3.948231517949332 6.753882141263762 -0.409999881207222 49
-3.950682674999415 6.812544567776746 -0.412721350931855 35
-3.960739373088756 6.885155801934986 -0.416280195956375 35
-3.970336875399749 6.957919536435385 -0.419839040980895 32
-3.983897038632391 7.032919543149307 -0.423607229830387 30
-3.984760016781491 7.092055234457449 -0.426328699555020 32
-3.996925399843129 7.172217780756053 -0.430306232229484 32
-4.092634776886994 7.404628937001459 -0.443390221290220 22
-4.090764061942803 7.462654429117608 -0.446007019102367 21
-4.061827828669683 7.471624216794905 -0.445693003364910 24
-3.979194325879745 7.377821967447214 -0.439308016703271 4
-3.977907703983593 7.437457645709067 -0.442029486427904 8
-3.948178660687654 7.444239999200277 -0.441610798777960 14
-3.923099004457528 7.459744073637986 -0.441715470690446 16
-3.899041043563502 7.483609006196395 -0.442238830252875 4
-3.855478051385758 7.463458506383280 -0.440250063915644 32
-3.837478410997753 7.486198097173954 -0.440878095390559 32
-3.804989215695548 7.487084152214329 -0.440145392003158 32
nan nan nan 0
-3.491148070286865 6.989934915974110 -0.409476521644792 1
-3.444900671726306 6.954940236240502 -0.406755051920159 3
-3.420602412234108 6.966922811769600 -0.406755051920159 3
-3.384560463075661 6.957860665587455 -0.405498988970329 3
-3.357650219760166 6.964235359263125 -0.405184973232871 5
-3.321264638756019 6.950683974329992 -0.403719566458069 1
-3.286724332409217 6.940573916549917 -0.402463503508238 3
-3.268783373397509 6.962282418303995 -0.403091534983153 3
-3.242775561479313 6.970028450294884 -0.402882191158182 5
-3.218879059798355 6.985494886750443 -0.403091534983153 3
-3.186180337249143 6.978519816162192 -0.402044815858294 5
-3.163021212897395 6.989047200642056 -0.402044815858294 3
-3.136971350352988 6.996400717546151 -0.401835472033323 3
-3.109287179233147 7.000006985873063 -0.401416784383379 3
-3.088051210015951 7.018130233739949 -0.401835472033323 35
-3.072744500445623 7.046639708047287 -0.402882191158182 5
-3.056047690987807 7.075658128106928 -0.403928910283040 7
-3.076105185484001 7.190951731532874 -0.409895209294736 14
-3.093836256642070 7.302792239633335 -0.415652164481460 15
-3.109278127727720 7.411159441900008 -0.421199775843212 14
-3.126299402546686 7.525255517505906 -0.427061402942422 13
-3.134203624506114 7.619241490587123 -0.431771639004287 4
-3.149776280723648 7.733720353477380 -0.437633266103496 3
-3.957259641432678 9.809345777372268 -0.554342448525261 8
-3.970402314563116 9.941807579653540 -0.561041450924358 8
nan nan nan 0
-4.280072437768679 10.938312973668168 -0.615575517329505 37
-4.241864524441013 10.953186574634493 -0.615575517329505 42
-4.202175370860627 10.964196761506917 -0.615366173504534 45
-4.166710632422261 10.986268133922101 -0.615784861154477 48
-4.119915135811629 10.978306683176937 -0.614528798204646 45
nan nan nan 0
-4.114793835940044 11.201777902162396 -0.625414677103179 6
-4.137058069317153 11.385018000179178 -0.634835149226909 6
-4.163496944339794 11.583584256185373 -0.645092996650526 24
-4.182666944088461 11.752784008295221 -0.653780765386854 4
-4.202620228248036 11.940638409134264 -0.663410581335556 5
-4.252167891313102 12.217428309322713 -0.677959977171094 19
-4.249789891523944 12.349287371100775 -0.684449635745219 8
-4.279351886258111 12.577708892736977 -0.696277561856125 7
-4.299092815976162 12.781875011655414 -0.706744753104713 7
-4.323760788186063 13.005282508999302 -0.718258663478161 6
-4.351908484283127 13.244195016935738 -0.730609949151496 6
-4.380793288010236 13.482695382276944 -0.742961234824831 8
-4.404527324561100 13.718496354913418 -0.755103176673194 4
-4.346973992791783 13.711701121127270 -0.753847113723363 4
-4.330125063651990 13.825901762571799 -0.759290053172629 4
-4.292521390888477 13.866896092454322 -0.760755459947431 4
-4.334017812903840 14.175933511893460 -0.776874934470258 2
-4.309908106833027 14.275104354817593 -0.781480498619637 9
-4.281734996127762 14.362794474057283 -0.785458031294101 4
-1.813478389215536 6.157702877309316 -0.336415526729643 1
-1.761865124867320 6.060431251862785 -0.330763243455405 10
-1.739597829487483 6.062704801578381 -0.330553899630433 31
-1.710262198140997 6.039914640056395 -0.328983820943145 28
-1.692393171785751 6.057389320395256 -0.329611852418060 35
-1.696182486641263 6.153756388809318 -0.334531432304897 24
-1.682551475964255 6.188549127625899 -0.336101510992185 28
-1.651111115162201 6.157731462092754 -0.334112744654953 19
-1.625112284552564 6.137788702991926 -0.332752009792637 15
-1.605695341936781 6.151154018169937 -0.333170697442580 12
-2.785290895877669 10.832292827598369 -0.586162709920971 6
-2.760218242998023 10.892286934982206 -0.588884179645604 3
nan nan nan 0
-1.574397438803378 6.400153090810435 -0.345417311203429 1
-1.550515069754784 6.389540177996850 -0.344579935903542 1
-1.523559797230352 6.375487940011579 -0.343533216778683 1
-1.502210775671596 6.384655655357287 -0.343742560603655 3
-1.479013728317072 6.385968941391692 -0.343533216778683 3
-1.460264320837578 6.406671289257801 -0.344370592078570 3
-1.437017869743984 6.407831823420227 -0.344161248253599 3
-1.413522339877521 6.413055717040645 -0.344161248253599 3
nan nan nan 0
-1.209178785178951 5.664428033399974 -0.303548546209074 1
-1.172173097910537 5.586517172125457 -0.299152325884667 16
-1.151286645161633 5.588819693041295 -0.299047653972181 26
-1.125432775192090 5.561483113780288 -0.297372903372407 26
-1.106204752742272 5.561266839838519 -0.297163559547435 26
-1.087933986697156 5.570975025324728 -0.297477575284893 29
-1.069453985945469 5.574552113322466 -0.297477575284893 29
-1.049249743971800 5.574325660861572 -0.297268231459921 29
-1.029060122894016 5.574026128459252 -0.297058887634949 30
-1.009596871313794 5.577584259758922 -0.297058887634949 27
-0.990819078028409 5.585007533851644 -0.297268231459921 29
-0.972001753735877 5.592367627663349 -0.297477575284893 29
-0.951804541106509 5.591788597049580 -0.297268231459921 29
-0.932608025127880 5.597047045345155 -0.297372903372407 16
-0.390808533564103 2.397017360289410 -0.127281045582839 3
-0.379608448770237 2.380615862148491 -0.126338998370466 8
-0.373669202090541 2.391663285152976 -0.126862357932896 20
-0.366825552106565 2.402824981828663 -0.127385717495325 35
-0.354018030577989 2.374459445654317 -0.125815638808037 27
-0.346877970920872 2.383586492685658 -0.126234326457980 30
-0.339117040110731 2.388737664824648 -0.126443670282952 31
-0.330776723583356 2.389906851193333 -0.126443670282952 33
-0.320297062893368 2.375212169504549 -0.125606294983065 32
-0.310444053444049 2.364434165573598 -0.124978263508150 34
-0.302601600271852 2.365450634691707 -0.124978263508150 34
-0.293356720104963 2.358564552186622 -0.124559575858206 35
-0.286080399481544 2.367505530866394 -0.124978263508150 33
-0.276651142662837 2.358571415528308 -0.124454903945720 32
-0.266836257993089 2.345631520190086 -0.123722200558319 27
-0.258428028987357 2.344563426406973 -0.123617528645833 18
-0.250242400912895 2.345451224689366 -0.123617528645833 23
-0.241848767131439 2.344323729363880 -0.123512856733347 30
-0.233862097166376 2.347141075035849 -0.123617528645833 32
-0.223756802953739 2.328062131856728 -0.122570809520974 33
-0.215997268162578 2.332806510212677 -0.122780153345946 34
-0.207852937886983 2.333546269126904 -0.122780153345946 33
-0.199365570172248 2.330277615667985 -0.122570809520974 32
-0.190903558688556 2.326978191344468 -0.122361465696003 30
nan nan nan 0
-0.176258035938955 2.344156810101281 -0.123198840995890 1
-0.170359110534240 2.376632146458510 -0.124873591595664 1
-0.163148831531907 2.393153403267739 -0.125710966895551 1
-0.153763071355954 2.377763550904333 -0.124873591595664 1
-0.141438509148886 2.312499183339280 -0.121419418483630 1
-0.132215816160835 2.293039334857998 -0.120372699358771 2
-0.125506922453878 2.317418921256024 -0.121628762308601 4
-0.117012667351921 2.309864098487275 -0.121210074658658 6
nan nan nan 0
-0.100709814877257 2.306633988374641 -0.121000730833686 40
-0.092336931776237 2.298988878157479 -0.120582043183743 36
-0.084238213467372 2.297301270274187 -0.120477371271257 36
-0.076152402848329 2.295585159559434 -0.120372699358771 35
-0.068420350206230 2.291832328872363 -0.120163355533799 35
-0.060209423145257 2.284070935824433 -0.119744667883855 32
-0.052236160884241 2.284267190590772 -0.119744667883855 30
-0.044339643719260 2.288429380835207 -0.119954011708827 30
-0.036414704582010 2.292564227514044 -0.120163355533799 20
-0.028189198474710 2.274703419949836 -0.119221308321426 21
-0.020159941393920 2.264802060605606 -0.118697948758997 25
-0.012221765578269 2.258866944476478 -0.118383933021539 30
-0.004363615241083 2.272876632330195 -0.119116636408940 32
0.003570231376829 2.272878017047667 -0.119116636408940 32
0.008229886156652 2.245407767427808 -0.196449044153222 4
nan nan nan 0
0.024053942828179 2.259241528809957 -0.197669224551689 30
0.031883689316634 2.255159420206783 -0.197320601580698 29
0.038658493850573 2.237119298193610 -0.195751798211240 30
0.046508639767451 2.238962685255403 -0.195926109696736 30
0.054275463908630 2.236794896166067 -0.195751798211240 30
0.062193570861997 2.240575056666387 -0.196100421182231 30
0.070670421803753 2.236336943525985 -0.195751798211240 29
0.078336502148559 2.232094306147739 -0.195403175240250 27
0.085049611710784 2.213903972585374 -0.193834371870792 26
nan nan nan 0
0.101497567120857 2.235149989903499 -0.195751798211240 2
0.110077700345213 2.250702166033616 -0.197146290095203 1
0.115847974330154 2.210511033190100 -0.193660060385296 1
0.123563392011023 2.210093181104881 -0.193660060385296 1
0.132222595229665 2.225559459315741 -0.195054552269259 2
0.139239822968946 2.213153610231775 -0.194008683356287 2
0.147368317874995 2.224607898153230 -0.195054552269259 2
0.154023669436701 2.208179451553885 -0.193660060385296 3
0.161585143597993 2.205641291402820 -0.193485748899801 5
0.166385642262066 2.167319480873849 -0.190173830675390 15
0.176341598395073 2.196515475429835 -0.192788502957820 21
0.184174166241809 2.197871977329719 -0.192962814443315 10
0.191115649037599 2.193279412645913 -0.192614191472325 5
0.198410693045503 2.188630427471496 -0.192265568501334 2
0.206413209345564 2.195895020088570 -0.192962814443315 2
0.214463825613839 2.199127089476161 -0.193311437414306 2
0.222940127494892 2.206294252889882 -0.194008683356287 2
0.227324591415707 2.173797266680363 -0.191219699588362 3
0.234911174981851 2.172990512256780 -0.191219699588362 4
0.238958051799496 2.140475861768963 -0.188430715820437 15
0.244832508474959 2.125773567015283 -0.187210535421970 21
0.254600060426203 2.144690963117531 -0.188953650276923 30
0.261732673018675 2.137810532579980 -0.188430715820437 31
0.270936588009609 2.150721251776036 -0.189650896218904 36
0.278067146992652 2.149810968277615 -0.189650896218904 37
0.285569693611317 2.148827235413333 -0.189650896218904 37
0.292530031313949 2.143869126164802 -0.189302273247914 37
0.299735495007744 2.140861800096414 -0.189127961762418 39
0.307489810977955 2.141774653292898 -0.189302273247914 40
0.315544170801028 2.144630600788131 -0.189650896218904 41
0.323840516186948 2.151453207683512 -0.190348142160885 41
0.331045083716542 2.148340537874142 -0.190173830675390 38
0.337300956942684 2.139299578900373 -0.189476584733409 36
0.346669485781146 2.149911035900044 -0.190522453646381 28
nan nan nan 0
nan nan nan 0
nan nan nan 0
1.278828728645587 7.282323831438121 -0.646869922673119 2
1.918818422712035 10.718001946588505 -0.952612268231904 5
1.959083174640055 10.726918486522376 -0.954006760115866 7
1.999116408363292 10.723583327814721 -0.954355383086857 1
nan nan nan 0
1.582421817945242 8.186615926381998 -0.729493566797899 4
2.102176782672802 10.675429479169923 -0.951915022289923 3
nan nan nan 0
1.399419604449066 6.853871565540372 -0.612007625574056 2
2.221960176010887 10.691844809194475 -0.955401251999829 7
2.218048143336711 10.489095219268155 -0.937970103450297 5
2.294034569599920 10.664385176664132 -0.954355383086857 3
2.325285067153509 10.629063512220242 -0.951915022289923 7
2.352739019233548 10.586285303311843 -0.948777415551007 8
2.384848311679754 10.556630650501628 -0.946859989210558 14
2.410092032451238 10.497753023468194 -0.942327890587680 12
2.257084600716606 9.676289454385689 -0.869291378165143 15
2.253638933308147 9.511316215741983 -0.855172147840022 13
2.238814668367538 9.303870742471544 -0.837218064834004 20
2.341517657102018 9.576231852314640 -0.862493230230825 15
2.371570833700734 9.554464114453122 -0.861273049832358 18
nan nan nan 0
2.434885816167067 9.538525242188170 -0.861273049832358 24
2.366357977430575 9.130303085986817 -0.825190572334828 8
2.364272492638872 8.992884425474832 -0.813511702806641 22
2.388462679404928 8.957624981392133 -0.811071342009707 28
2.405155135194418 8.895380006452870 -0.806190620415838 22
2.419374202794877 8.831629194976072 -0.801135587336474 24
2.443257132368777 8.798173563095057 -0.798869538025035 40
2.481510957571816 8.816441561849143 -0.801309898821969 44
2.512817465849146 8.809641731872603 -0.801484210307464 54
2.550191788551589 8.823785329278222 -0.803575948133408 64
2.559142281066539 8.740257428838548 -0.796777800199091 16
2.579797505644073 8.709250420796412 -0.794686062373147 14
2.595869394625969 8.652483302694497 -0.790328275235764 14
2.599500601789615 8.545238830176096 -0.781438389475503 10
2.615237034264444 8.490414245108939 -0.777254913823616 8
2.652562265564426 8.516396945959823 -0.780392520562531 6
2.679877386114180 8.499485188770446 -0.779695274620550 8
2.703472276920148 8.471098162873586 -0.777952159765597 18
nan nan nan 0
2.432005518054797 7.440730238416502 -0.684869826511098 2
2.775766078775495 8.393141252531219 -0.773420061142719 2
2.318311420699308 6.932723378121235 -0.639548840282316 8
2.347604669683284 6.939687309946525 -0.640943332166278 8
2.363428868411614 6.906944281831422 -0.638677282854839 10
2.444214871944172 7.062457631670860 -0.653842382092932 4
nan nan nan 0
2.987366028664145 8.440742969467244 -0.783355815815952 60
3.018825412870398 8.435891371484058 -0.783878750272437 56
3.047575935684751 8.423428771519403 -0.783704438786942 64
3.057976059558022 8.351795352731552 -0.778126471251092 60
nan nan nan 0
2.013462355190319 5.388116331869893 -0.503237258624978 2
nan nan nan 0
3.084003276193984 8.080437726380055 -0.756686158535168 68
3.091399526487338 8.015714292493209 -0.751631125455804 63
3.101998823349857 7.960320427642264 -0.747447649803916 70
3.107869940510819 7.893827488629160 -0.742218305239057 72
3.114892862249355 7.835340293648787 -0.737686206616179 70
3.122919546104284 7.776348922373043 -0.733154107993301 70
2.961087503471849 7.295931916690699 -0.688878990677490 97
nan nan nan 0
nan nan nan 0
nan nan nan 0
3.155906676843143 7.478358853219399 -0.710144991907919 63
2.390008563896989 5.608720960852775 -0.533393145615668 12
nan nan nan 0
2.413229750523929 5.555350648848502 -0.529906915905762 63
2.375792667977849 5.417343912784491 -0.517530800435594 60
2.393075125208953 5.405374181351290 -0.517182177464604 78
2.450135986503636 5.482481094267889 -0.525374817282883 61
2.492197852042111 5.524747499186477 -0.530255538876752 82
2.508165246342297 5.508761304633257 -0.529558292934771 70
2.528211053216777 5.501783005372590 -0.529732604420266 55
2.560812239721380 5.521844024509086 -0.532521588188191 61
2.590205957992282 5.534525967671431 -0.534613326014135 34
nan nan nan 0
2.656949322769573 5.577924425346923 -0.540539916520976 12
nan nan nan 0
nan nan nan 0
2.025247032628353 4.139528276987608 -0.403182465950667 6
2.028220489428548 4.109207669749898 -0.400916416639228 10
2.033671283755357 4.084267594657759 -0.399173301784274 16
2.031818494825242 4.045096455257406 -0.396035695045359 18
2.036020685705488 4.018429364521965 -0.394118268704910 21
2.037341501200586 3.986460086836763 -0.391677907907976 22
2.043941380627118 3.965156552739971 -0.390283416024013 22
2.050417446979381 3.943855689272080 -0.388888924140051 24
2.051218464428965 3.911970899569132 -0.386448563343116 22
2.051822026025099 3.880128873361747 -0.384008202546182 22
2.052758805282034 3.852563445462342 -0.381916464720238 22
2.059592995614732 3.833088967336701 -0.380696284321771 24
2.066032427647912 3.811501562135420 -0.379301792437808 24
2.065946457331620 3.779790562555089 -0.376861431640874 22
2.065010236873117 3.748487372703464 -0.374421070843939 22
2.069375270054455 3.725580649821742 -0.372852267474482 15
2.078473270958745 3.711381077423633 -0.372155021532500 6
2.079660715845682 3.683283925116356 -0.370063283706557 4
2.085259152546246 3.661786120004578 -0.368668791822594 2
2.086124759719844 3.633750232248629 -0.366577053996650 1
2.094804201529297 3.619548497162746 -0.365879808054669 1
nan nan nan 0
0.449190019212385 0.764402666937042 -0.077568611045416 3
0.415300939888279 0.701117950698157 -0.071293397567584 3
0.421831301284025 0.706506688223193 -0.071990643509566 3
0.424294899914494 0.705029917913863 -0.071990643509566 3
0.408388765079964 0.672739084552044 -0.068853036770650 4
0.414893912138468 0.678107513485163 -0.069550282712631 4
0.444322392219523 0.720825507697931 -0.074082381335509 3
0.413191725841824 0.665113330933774 -0.068504413799659 4
0.455560473871047 0.727917852962124 -0.075128250248481 3
0.472978839063426 0.749916080890855 -0.077568611045416 3
0.422272079972581 0.664112603255721 -0.068853036770650 4
0.435336748462581 0.679410110915110 -0.070596151625603 3
0.422346640365781 0.654600720705574 -0.068155790828669 4
0.431145097024063 0.663144807414726 -0.069201659741641 4
0.424835765994355 0.648228940976188 -0.067807167857678 4
0.418312455389468 0.633441430706932 -0.066412675973716 4
0.444686407630567 0.668547143877334 -0.070247528654612 4
0.442580466574698 0.660370569287515 -0.069550282712631 4
0.424812988707012 0.629100374420352 -0.066412675973716 4
0.427006370713197 0.627613667665351 -0.066412675973716 4
0.440459498594674 0.642552891421591 -0.068155790828669 8
0.438170845694558 0.634453823934482 -0.067458544886687 8
0.424451671416393 0.610024109662480 -0.065018184089753 9
0.419716615016652 0.598749952793222 -0.063972315176781 9
0.430892200613391 0.610376188907491 -0.065366807060744 9
0.446876831929583 0.628352163843135 -0.067458544886687 4
0.442212873887480 0.616993622850501 -0.066412675973716 4
0.444363889438109 0.615446252920144 -0.066412675973716 4
0.446402339495795 0.613969305228438 -0.066412675973716 4
0.448542772684180 0.612407329759204 -0.066412675973716 9
0.431751641180990 0.585185907321447 -0.063623692205790 9
0.440922513132616 0.593269909297214 -0.064669561118762 9
0.443093994459676 0.591649862620178 -0.064669561118762 9
0.437957241292565 0.580556182112902 -0.063623692205790 9
0.442290328449415 0.582273825833715 -0.063972315176781 9
0.461269691281354 0.602879447630465 -0.066412675973716 9
0.458506532272285 0.594953142793102 -0.065715430031734 9
0.450806921137293 0.580758070775177 -0.064320938147772 9
0.445468286475760 0.569763346800829 -0.063275069234800 9
0.449919731359860 0.571335506618636 -0.063623692205790 9
0.454287555866987 0.572962790655136 -0.063972315176781 9
0.453798235891688 0.568259788205795 -0.063623692205790 9
0.465768746234885 0.579092488958762 -0.065018184089753 9
0.457754346647115 0.565077856508088 -0.063623692205790 9
0.452263661727662 0.554134998274446 -0.062577823292819 10
0.466846875337019 0.567944373952109 -0.064320938147772 9
0.461106091577891 0.557183486764542 -0.063275069234800 9
0.463048215688400 0.555570531580933 -0.063275069234800 4
0.477694840141522 0.569294541902376 -0.065018184089753 4
0.482251144764868 0.570667165612021 -0.065366807060744 4
0.471423785157258 0.553725239246060 -0.063623692205790 9
0.483728652129727 0.564176591898697 -0.065018184089753 4
0.477882259917708 0.553436616557729 -0.063972315176781 4
0.482425977751431 0.554772018856725 -0.064320938147772 4
0.479109044305452 0.547089160425263 -0.063623692205790 9
0.486287229240318 0.551390558128777 -0.064320938147772 4
0.488208978844179 0.549689739663853 -0.064320938147772 9
0.492781282647115 0.550952316754700 -0.064669561118762 9
0.494701462939107 0.549228832482977 -0.064669561118762 9
0.499292788579001 0.550450131265927 -0.065018184089753 13
0.509273554416364 0.557530257181596 -0.066064053002725 18
0.512565451981436 0.557215520696429 -0.066238364488220 22
0.515861341177946 0.556884577940618 -0.066412675973716 22
0.515083967115728 0.552166684725887 -0.066064053002725 27
0.516912185720318 0.550455568738020 -0.066064053002725 22
0.527044160249084 0.557333572941561 -0.067109921915697 21
0.527612415874501 0.554047617693109 -0.066935610430201 21
0.526785151139391 0.549326476369159 -0.066586987459211 22
0.532755226362784 0.551876913055446 -0.067109921915697 21
0.534678390563218 0.550013888047563 -0.067109921915697 21
0.540872706368414 0.552321022816122 -0.067632856372183 21
0.544196333644031 0.551848292953340 -0.067807167857678 17
0.554542762607241 0.558427778470402 -0.068853036770650 12
0.550853332646957 0.550853332646957 -0.068155790828669 12
0.555503991671021 0.551831913292017 -0.068504413799659 12
0.554590082285201 0.547091060800131 -0.068155790828669 8
0.565132592932991 0.553418722753248 -0.069201659741641 4
0.604198434209682 0.587557303567925 -0.073733758364519 3
0.609009449173625 0.588319038951569 -0.074082381335509 3
0.628312796193305 0.602740851203672 -0.076174119161453 3
0.621757371447056 0.592298503345948 -0.075128250248481 3
0.696190127187493 0.658584481973252 -0.083843824523247 2
0.614259999295875 0.577030316484736 -0.073733758364519 3
0.601701426891270 0.561292027490226 -0.071990643509566 7
0.603559429970764 0.559293627480634 -0.071990643509566 11
0.605508051972463 0.557183404494060 -0.071990643509566 7
2.481671619697498 2.266871995515582 -0.294063476030599 2
nan nan nan 0
3.626412619786117 3.267529431538077 -0.427063139463525 48
3.637796332673928 3.254850982287159 -0.427063139463525 65
3.643177947557099 3.236839595543040 -0.426365893521544 69
3.638019844220080 3.209603575485378 -0.424448467181095 63
3.634214834495545 3.183756071348331 -0.422705352326142 61
3.639293200249225 3.165820298242750 -0.422008106384161 60
3.647306254749637 3.150492717673207 -0.421659483413170 60
3.652232060326814 3.132553554553250 -0.420962237471189 60
3.651009822137399 3.109451106790247 -0.419567745587226 61
3.651192278031712 3.087682021119117 -0.418347565188759 65
3.655844808576769 3.069793306793692 -0.417650319246778 66
3.660417015581670 3.051909796619465 -0.416953073304797 66
3.664908992285307 3.034031833131088 -0.416255827362815 65
3.663164254758858 3.011099087539578 -0.414861335478853 66
3.656152629919561 2.985074416934656 -0.412943909138404 63
3.654168444459121 2.962256581843772 -0.411549417254442 63
3.656725933126463 2.943236848343731 -0.410677859826965 66
3.666977468970721 2.930454561584095 -0.410677859826965 68
3.666258903534701 2.908967868679468 -0.409457679428498 63
3.665435147074720 2.887522004587158 -0.408237499030031 65
3.667645239818556 2.868572359983019 -0.407365941602554 63
3.679209738296534 2.856974386258455 -0.407540253088050 66
3.678114635680062 2.835598830110786 -0.406320072689582 58
3.684826015562281 2.820320623093906 -0.405971449718592 57
3.678296711270915 2.796028747553741 -0.404228334863639 57
3.681672841776407 2.778371419806887 -0.403531088921657 57
3.688159667710192 2.763113852997338 -0.403182465950667 57
3.694584874829148 2.747844882382176 -0.402833842979676 57
3.697266224802917 2.730843206823586 -0.402136597037695 57
3.695528859749426 2.709673868499359 -0.400916416639228 51
3.139953812030632 2.284660913377334 -0.339733085230372 10
3.143064214472505 2.270186736221119 -0.339210150773886 6
3.142873480215552 2.253396832253511 -0.338338593346409 5
3.147473663936803 2.240101853655290 -0.337989970375418 5
3.141480669698935 2.221001280001215 -0.336595478491456 5
3.139429038617781 2.203154958461880 -0.335549609578484 5
3.147100358115447 2.192182883671286 -0.335549609578484 3
3.158010976207830 2.183450263120506 -0.335898232549475 3
3.166371522746404 2.171308305448759 -0.335898232549475 3
3.160754837861012 2.151274064925014 -0.334503740665512 2
3.180702440246242 2.150260533977624 -0.335898232549475 2
3.174953007749465 2.130263985064622 -0.334503740665512 2
3.192690733868756 2.125237007343019 -0.335549609578484 2
3.203414513037288 2.116275935465934 -0.335898232549475 2
3.197086587623791 2.096899758862317 -0.334503740665512 2
3.207726298152696 2.087900833542304 -0.334852363636503 2
3.208662117627712 2.071806885841295 -0.334155117694521 3
3.229294971633550 2.069193187136959 -0.335549609578484 5
3.249587796720419 2.067027775308160 -0.336944101462446 7
3.261837773230365 2.058862389960937 -0.337467035918932 8
3.289267097566044 2.060154800019243 -0.339558773744876 8
3.326898243023762 2.067590692416832 -0.342696380483792 8
3.362563143063930 2.074329891188302 -0.345659675737212 6
3.390175452546149 2.075061289532997 -0.347751413563156 3
3.431820899676881 2.083299649711715 -0.351237643273062 1
3.445899006784120 2.075419444063637 -0.351934889215044 2
3.492095502061650 2.087493433604807 -0.355944053381436 15
3.725568404129224 2.209443043281514 -0.378953169466818 36
3.740511019160905 2.199813373360517 -0.379650415408799 45
3.743004247872862 2.183731108353881 -0.379127480952313 66
3.745052456491237 2.168311946077326 -0.378604546495827 64
3.759509324241686 2.159195172093827 -0.379301792437808 70
3.763935236354587 2.143429502428151 -0.378953169466818 70
3.764455182505137 2.126358303585873 -0.378255923524836 70
3.750996441526312 2.101519022291835 -0.376164185698893 67
3.763533971189192 2.091316059617473 -0.376687120155379 71
3.765214021467790 2.075938312652821 -0.376164185698893 64
3.767193107151114 2.059914984604503 -0.375641251242407 53
3.755094723498643 2.036305016507425 -0.373723824901958 41
3.755160884856114 2.019410285265494 -0.373026578959977 63
3.764295365804428 2.006570580456621 -0.373200890445472 52
3.769515215157281 1.992487443896994 -0.373026578959977 56
3.776101815551621 1.979976325610278 -0.373026578959977 61
3.775919207658074 1.963106977475553 -0.372329333017996 60
3.778866762857274 1.948748403443995 -0.371980710047005 63
3.782098207551527 1.933731817055058 -0.371632087076014 60
3.782051166608908 1.916254763016929 -0.370934841134033 61
3.788717102459401 1.903041266279981 -0.370934841134033 57
3.791440247175020 1.888690209380310 -0.370586218163042 24
3.753348455229012 1.853390436453818 -0.366228431025660 44
3.777690393267279 1.849036569145767 -0.367971545880613 60
3.791292012623986 1.839317318178033 -0.368668791822594 71
3.799803730680239 1.826272261589326 -0.368843103308089 60
3.802557960394516 1.811283736967068 -0.368494480337099 61
3.797733996409066 1.793559034568224 -0.367448611424127 60
