# This PCD file was generated using the MATLAB® pcwrite function
# from Computer Vision Toolbox®.
# .PCD v.7 - Point Cloud Data file format
VERSION .7
FIELDS x y z intensity
SIZE 8 8 8 1
TYPE F F F U
COUNT 1 1 1 1
WIDTH 841
HEIGHT 1
VIEWPOINT 0 0 0 1 0 0 0
POINTS 841
DATA ascii
2.620335913645764 2.473600509738315 0.062898472799970 33
2.623118789875292 2.458968308153740 0.062758853548472 33
2.625831513346056 2.444346885164792 0.062619234296973 33
2.625537350773162 2.427021762548190 0.062409805419726 36
2.622208037388932 2.407024054991451 0.062130566916729 36
2.627638420167039 2.395161955957581 0.062060757290980 35
2.633017976831564 2.383291307433774 0.061990947665231 35
2.638346713977802 2.371412319590677 0.061921138039482 33
2.631689539098013 2.348872718464352 0.061572089910736 36
2.624907337640966 2.326408650249044 0.061223041781991 33
2.630009733238551 2.314589614870708 0.061153232156241 35
2.632050137807034 2.300131607345608 0.061013612904743 38
2.640063060107263 2.290930024618253 0.061013612904743 37
2.627559423889574 2.265648688225120 0.060559850337374 35
2.630895028166873 2.252561325982112 0.060455135898750 37
2.638741906234462 2.243364065154290 0.060455135898750 37
2.634332352008933 2.223820118744252 0.060175897395754 37
2.641318791039767 2.212404597968322 0.060140992582879 35
2.636725836722938 2.192941730269230 0.059861754079882 35
2.637436307407491 2.179552016121727 0.059722134828384 34
2.635752918732464 2.162721616210387 0.059512705951137 35
2.643286168094062 2.153507945514244 0.059512705951137 34
2.649232495941805 2.143010399792244 0.059477801138262 37
2.641105914192224 2.121227790829263 0.059128753009517 38
2.642240466871026 2.107008684682543 0.058989133758018 37
2.646443605595883 2.095290136387908 0.058919324132269 38
2.647452923282047 2.081096337342285 0.058779704880771 37
2.649971898338619 2.068151392793146 0.058674990442147 39
2.644529262538962 2.049090265393547 0.058395751939151 39
2.643740928118475 2.033750278086278 0.058221227874778 38
2.647645488865417 2.022082040335217 0.058151418249029 43
2.654687742038843 2.012827713646733 0.058151418249029 42
2.660099991027633 2.002346250926850 0.058116513436154 43
2.649107378803423 1.980343668919111 0.057732560494534 40
2.656003928965263 1.971084493566888 0.057732560494534 40
2.653208377319598 1.954684730551208 0.057523131617286 40
2.653558988184101 1.940689524044467 0.057383512365788 40
2.663553487917859 1.933764704609314 0.057453321991537 40
2.654064471175750 1.912763677182625 0.057104273862792 40
2.654219652618445 1.898833606132733 0.056964654611293 40
2.652679590672163 1.883767998003955 0.056790130546921 37
2.662507893370991 1.876801178852125 0.056859940172670 37
2.665766021476760 1.865203045197071 0.056790130546921 37
2.655836088759637 1.844479621426428 0.056441082418175 37
2.658965507356597 1.832927906463218 0.056371272792426 36
2.662046680579973 1.821376846140973 0.056301463166677 36
2.665079651227289 1.809826636381034 0.056231653540927 37
2.664748037191388 1.796042199385615 0.056092034289429 39
2.664352743800178 1.782282184126825 0.055952415037931 39
2.665559912643639 1.769652899990561 0.055847700599307 40
2.668381263397102 1.758137156205347 0.055777890973558 40
2.670849854997674 1.747089483034986 0.055708081347809 40
2.676932063642845 1.737755833341786 0.055708081347809 42
2.666170992718644 1.717571429381244 0.055359033219063 42
2.662041175511091 1.701791791325976 0.055149604341816 43
2.668260673818093 1.692023492064091 0.055149604341816 47
2.670765681194764 1.680569216773385 0.055079794716067 43
2.683108055936696 1.675940922732268 0.055219413967565 43
2.671944731190024 1.656030373036252 0.054870365838819 45
2.667488813898863 1.640408366747414 0.054660936961572 43
2.673198656431101 1.631087099214951 0.054660936961572 43
2.678875926881319 1.621745957400924 0.054660936961572 45
2.681092049616460 1.610325814951625 0.054591127335823 43
2.676389780593236 1.594815466820174 0.054381698458575 43
2.668169223982336 1.577322388105950 0.054102459955579 45
2.673658851208656 1.567999129840437 0.054102459955579 45
2.679115900745630 1.558656766000357 0.054102459955579 45
2.688004229076444 1.551294501271619 0.054172269581328 43
2.676048481173502 1.531967227861438 0.053823221452582 45
2.674424151870691 1.518667022999266 0.053683602201084 45
2.679708995556630 1.509322288309423 0.053683602201084 43
2.681469690840841 1.498008630932284 0.053613792575335 43
2.683184096008016 1.486701095990562 0.053543982949586 45
2.674337188096729 1.469621540180301 0.053264744446589 43
2.679450831628469 1.460277407852545 0.053264744446589 43
2.681013436560714 1.449013889474602 0.053194934820840 43
2.686055105293364 1.439646578239556 0.053194934820840 43
2.687532465180290 1.428384741473724 0.053125125195091 43
2.678349643060863 1.411536220497184 0.052845886692094 43
2.681488207662530 1.401252294328095 0.052810981879220 42
2.684587633501391 1.390963667297204 0.052776077066345 43
2.678514103539417 1.376569266197164 0.052566648189098 43
2.686866391850406 1.369026806039052 0.052636457814847 43
2.684489218912386 1.356033080527177 0.052496838563349 43
2.685630230665765 1.344863439450610 0.052427028937600 43
2.686726016999553 1.333702377280497 0.052357219311851 47
2.691365138635976 1.324315827935650 0.052357219311851 50
2.695971466837527 1.314913142220370 0.052357219311851 50
2.686142039101671 1.298531797718327 0.052077980808854 47
2.683444834679018 1.285691341587566 0.051938361557356 47
2.689722781936883 1.277174277815101 0.051973266370230 47
2.695973943911436 1.268629041083644 0.052008171183105 47
2.702198200377176 1.260055714688533 0.052043075995979 47
2.692057925410743 1.243905394859756 0.051763837492983 48
2.690928978831683 1.232003476411138 0.051659123054359 48
2.700676349205619 1.225081124648246 0.051763837492983 47
2.701288302139178 1.214007098912071 0.051694027867234 48
2.703682707923853 1.203757097540360 0.051659123054359 50
2.696890288798957 1.189470343956065 0.051449694177112 48
2.697360992107593 1.178448041162542 0.051379884551363 50
2.697787650795180 1.167436965076980 0.051310074925614 50
2.701846330443933 1.158012816370259 0.051310074925614 48
2.709553547572219 1.150137244115801 0.051379884551363 48
2.700647649780532 1.135247738237345 0.051135550861241 52
2.695363254557717 1.121971434452696 0.050961026796868 52
2.698874724902128 1.113498178279729 0.050961026796868 48
2.706447506996030 1.105582989019360 0.051030836422617 50
2.710290223216913 1.096128988608926 0.051030836422617 50
2.702961338462527 1.082202008551070 0.050821407545370 52
2.699473086862123 1.069342045204628 0.050681788293871 50
2.699465939775502 1.058452676130239 0.050611978668122 48
2.710417497039325 1.052390263662528 0.050751597919620 52
2.715941138023324 1.043640007824910 0.050786502732495 52
2.699007270359682 1.026334905145565 0.050402549790875 52
2.708188169163638 1.019020047232711 0.050507264229498 52
2.709854678677063 1.008862806028130 0.050472359416624 48
2.705853921575775 0.996632916554771 0.050332740165126 48
2.713246548331850 0.988077300083289 0.050402549790875 50
2.709153624995166 0.975889478367885 0.050262930539377 50
2.708776188212545 0.965084562505103 0.050193120913627 48
2.704584291039114 0.952965088361483 0.050053501662129 48
2.711506037234069 0.945307708478428 0.050123311287878 48
2.714789257501808 0.935837026954116 0.050123311287878 48
2.706682688338739 0.922484378724147 0.049913882410631 48
2.700411142886519 0.909838257936889 0.049739358346258 48
2.713056831959580 0.903565842039274 0.049913882410631 48
2.716194336474188 0.894090001536894 0.049913882410631 52
2.722947310242330 0.886315731652366 0.049983692036380 52
2.706988056158005 0.870682528791102 0.049634643907634 48
2.713822361722591 0.862439363847318 0.049704453533383 48
2.707276920286336 0.849966154015398 0.049529929469011 48
2.716251078194234 0.841339694970361 0.049634643907634 50
2.717259137318397 0.831268095467047 0.049599739094760 52
2.704830278148926 0.817151549365346 0.049320500591763 61
2.705749937112957 0.807133327190711 0.049285595778889 58
nan nan nan 0
nan nan nan 0
nan nan nan 0
2.745616249942787 0.777448683088499 0.049809167972007 1
4.201986307235550 1.175587673296159 0.076162301692305 20
4.188715704656086 1.156124475321916 0.075848158376434 45
4.214150092829980 1.146538992056121 0.076232111318054 56
4.233577599878966 1.135967745647566 0.076511349821051 65
4.206586293325878 1.112999064650998 0.075952872815058 61
4.210445757122811 1.098308557481759 0.075952872815058 70
4.214064729088707 1.084340177325211 0.075952872815058 70
4.219762447424297 1.070115295170980 0.075987777627932 72
4.221532096333283 1.054894269933750 0.075952872815058 68
4.209654863706464 1.036327858132993 0.075673634312061 70
4.205473158500028 1.019742185900256 0.075534015060563 70
4.212897126870664 1.005985019817743 0.075603824686312 70
4.226116112919140 0.993561393163928 0.075778348750685 72
4.221765712346254 0.977000026948458 0.075638729499187 72
4.213619158249799 0.958857658799233 0.075429300621939 74
4.207183605974784 0.941959035320690 0.075254776557567 78
4.214027584681510 0.929598688822024 0.075324586183316 75
4.217246816362111 0.914883324036434 0.075324586183316 75
4.216503249188493 0.899322560702306 0.075254776557567 73
4.203959577247616 0.881316368599540 0.074975538054570 75
4.205202884726285 0.865499046665601 0.074940633241695 72
4.217998603291835 0.852796280345439 0.075115157306068 75
4.213250023221462 0.835774437583362 0.074975538054570 76
4.223993040062418 0.822591338786848 0.075115157306068 73
4.207056838068784 0.804822210290677 0.074766109177323 73
4.207875182613009 0.789763062344511 0.074731204364448 72
4.210470994979407 0.775804903008073 0.074731204364448 71
4.219056938996506 0.762169358320278 0.074835918803072 75
4.219722629984608 0.747088839631428 0.074801013990197 72
4.216393916112991 0.731329479098621 0.074696299551573 73
4.213006669383294 0.715602472859215 0.074591585112950 72
4.215478921089557 0.700891975471234 0.074591585112950 71
4.219873556671088 0.686494029624039 0.074626489925824 75
4.220269302163343 0.671445539599502 0.074591585112950 72
4.206779839710349 0.654251523000052 0.074312346609953 71
4.212991979245793 0.640163945911006 0.074382156235702 71
4.215200901440698 0.625453959398497 0.074382156235702 72
4.227253719577072 0.612169332574285 0.074556680300075 75
4.221548684693810 0.595554198864263 0.074417061048577 73
4.217658683125839 0.579997334299507 0.074312346609953 72
4.211631057369816 0.564944460203130 0.074172727358455 72
4.217543142779076 0.550757555099653 0.074242536984204 71
4.219533441708436 0.535295787398247 0.074242536984204 72
4.221376265864589 0.520563605813242 0.074242536984204 71
4.225064769197452 0.506800313463365 0.074277441797079 75
4.216876681898108 0.490892867383003 0.074102917732706 71
4.220551604150996 0.476394521344081 0.074137822545580 75
4.226164514002241 0.462093851848001 0.074207632171329 75
4.225763180881645 0.447128556034219 0.074172727358455 69
4.211383671590521 0.430747400416431 0.073893488855458 72
4.220748848220090 0.417567071442187 0.074033108106957 69
4.222180715062606 0.402831364540348 0.074033108106957 72
4.227611483106839 0.387718848505842 0.074102917732706 69
4.222963227039183 0.372432341485085 0.073998203294082 70
4.216267271289903 0.357014294689749 0.073858584042584 36
4.209515230076224 0.341647540583049 0.073718964791086 61
4.218599697419805 0.328307024738672 0.073858584042584 59
4.343360190731519 0.322767416761926 0.076022682440807 14
nan nan nan 0
3.317988638343097 0.223288996600523 0.058046703810405 6
nan nan nan 0
3.347446789061570 0.201220289039048 0.058535371190649 1
3.328130861974127 0.188984966026098 0.058186323061903 4
nan nan nan 0
nan nan nan 0
nan nan nan 0
3.350423766111062 0.143353401765499 0.058535371190649 1
3.350903750937682 0.131657366946743 0.058535371190649 1
3.267409452240553 0.116955369801186 0.057069369049917 1
3.479655023664272 0.112392219444808 0.060769279214621 1
4.561366645741297 0.132987808773484 0.079652782979762 8
4.569799219533193 0.117270054574820 0.079792402231260 9
4.580211913358699 0.099940579475381 0.079966926295633 8
3.252958085722476 0.059620244927631 0.056790130546921 1
4.548806402556346 0.067487852564761 0.079408449289640 6
nan nan nan 0
4.567157074794231 0.036668274915300 0.079722592605511 9
4.561258221872092 0.020698475316865 0.079617878166887 7
3.237505061754795 0.003390308611953 0.056510892043924 1
3.281490339407528 -0.008018209468890 0.057278797927164 4
3.265445077215148 -0.019377768623072 0.056999559424168 1
3.253359902502447 -0.030663102611010 0.056790130546921 1
4.562924286965351 -0.058935435735436 0.079652782979762 11
4.578686175226092 -0.075125100566621 0.079932021482758 10
4.562401648101498 -0.090788961687636 0.079652782979762 9
4.576050979464310 -0.107041506396236 0.079897116669884 8
4.569652536670522 -0.122853028643312 0.079792402231260 10
4.569195859685191 -0.138803344274829 0.079792402231260 9
4.576677705355510 -0.155022750728745 0.079932021482758 11
4.576108692284523 -0.170997392786318 0.079932021482758 9
4.573485892860250 -0.186888305027685 0.079897116669884 7
4.566812475467643 -0.202585750879137 0.079792402231260 10
4.586051588931512 -0.219481597390187 0.080141450360006 9
3.149368946762093 -0.161744543234606 0.055044889903192 1
3.148845270629131 -0.171637763129500 0.055044889903192 1
3.148226959185404 -0.182628238653752 0.055044889903192 1
3.147502510925772 -0.194715186391577 0.055044889903192 1
3.298456840490977 -0.215614127429354 0.057697655681659 3
3.118136882108039 -0.214760338567394 0.054556222522948 1
3.065511818545268 -0.221889854720381 0.053648697388210 1
3.028827297877177 -0.229865255480800 0.053020410756467 6
3.002091993030031 -0.238378717345194 0.052566648189098 32
nan nan nan 0
nan nan nan 0
3.015458864640439 -0.270183544874819 0.052845886692094 100
3.026443865803791 -0.281820262984126 0.053055315569342 100
3.023451269206882 -0.292190449492299 0.053020410756467 100
3.030371868650767 -0.303539699050406 0.053160030007966 60
nan nan nan 0
3.111629197752710 -0.334185176667847 0.054626032148697 1
3.623219741541835 -0.401927530824410 0.063631473870336 7
3.830400515971730 -0.438450762489706 0.067296479222165 20
3.840762199118823 -0.453224759023178 0.067505908099413 26
3.839156750234661 -0.466628759828740 0.067505908099413 27
3.829651143701698 -0.478365864868239 0.067366288847914 29
3.831924799531919 -0.492240493412434 0.067436098473663 27
3.840007163542945 -0.507592146963373 0.067610622538036 32
3.836230417682987 -0.520724211860506 0.067575717725162 29
3.850233963559595 -0.536319056875147 0.067854956228158 32
3.846358805797498 -0.549472817971987 0.067820051415284 30
3.838481558169737 -0.562026654820718 0.067715336976660 34
3.842429059977685 -0.576311859729638 0.067820051415284 32
3.844347002820191 -0.590327950105063 0.067889861041033 31
3.856091148364668 -0.605916485179262 0.068134194731155 32
3.855926973470822 -0.619690365527418 0.068169099544029 32
3.845847393388142 -0.631849520519533 0.068029480292531 30
3.857423080572907 -0.647587726711747 0.068273813982653 34
3.849226286821607 -0.660034822345686 0.068169099544029 31
3.866714352599138 -0.676240622000276 0.068518147672775 33
3.846613019504429 -0.686571549052755 0.068204004356904 31
3.857964420798471 -0.702502208446155 0.068448338047026 32
3.869251307300339 -0.718520450512187 0.068692671737148 32
3.872741917514956 -0.732462258398319 0.068797386175772 33
3.870161553027029 -0.745976188042755 0.068797386175772 32
3.863477114667264 -0.759384688194249 0.068727576550022 31
3.862763623523542 -0.773258630692274 0.068762481362897 31
3.869837972069250 -0.788734276682377 0.068937005427270 33
3.865103193602374 -0.801831530519755 0.068902100614395 31
3.877933338519681 -0.818622601884121 0.069181339117392 31
3.875052186678916 -0.832154128051338 0.069181339117392 29
3.879938397396868 -0.847382226115371 0.069320958368890 27
3.882813273794791 -0.862221060284543 0.069425672807514 26
3.889686172556364 -0.877292021860008 0.069600196871887 27
3.884651007099573 -0.890417443214708 0.069565292059012 24
3.871781322976987 -0.901704113533750 0.069390767994639 24
3.864718238048336 -0.914292920910682 0.069320958368890 23
3.876895473034753 -0.932191666857217 0.069600196871887 21
3.885273718655612 -0.948564572012237 0.069809625749134 20
3.885820878912788 -0.963083050166050 0.069879435374883 13
3.903767480686177 -0.982007389483083 0.070263388316503 8
3.892738962369493 -0.992970305629830 0.070123769065005 8
3.891185046227303 -1.007053472511130 0.070158673877880 9
3.876041153534037 -1.017583450747098 0.069949245000632 9
3.872465510252453 -1.031107159818538 0.069949245000632 12
3.859189881097406 -1.042011972077890 0.069774720936259 13
3.861315255723874 -1.057060717473581 0.069879435374883 13
3.865496554744080 -1.071997069609278 0.070019054626381 15
3.863656126975732 -1.086024758120076 0.070053959439256 14
3.855803507783832 -1.099082129841431 0.069984149813507 15
3.846179997827142 -1.110870059379628 0.069879435374883 17
3.844198125669978 -1.124850548131414 0.069914340187758 17
3.828744754842948 -1.134852777941620 0.069704911310510 18
3.824960395677091 -1.147543113282004 0.069704911310510 19
3.834324769711014 -1.164956936330448 0.069949245000632 19
3.814944592027615 -1.173630201534486 0.069670006497636 20
3.814643077694948 -1.188129011446609 0.069739816123385 22
3.825729640489231 -1.206247922224683 0.070019054626381 24
3.831020905681193 -1.222634729485566 0.070193578690754 24
3.828632673084927 -1.236614658934360 0.070228483503629 24
3.824292757035192 -1.249971547113352 0.070228483503629 22
3.819906243185086 -1.263313204783510 0.070228483503629 20
3.813576826541056 -1.276004956722206 0.070193578690754 18
3.807205372391905 -1.288667921890631 0.070158673877880 21
3.827278359990181 -1.310370267890011 0.070612436445249 16
3.803784897233379 -1.317178618047507 0.070263388316503 17
3.802938540691410 -1.331770136694431 0.070333197942253 16
3.811461597487195 -1.349709340157740 0.070577531632375 15
3.804844357631886 -1.362331513251530 0.070542626819500 15
3.806187279795826 -1.376318038933446 0.070647341258124 13
3.788212849179711 -1.384789812872377 0.070403007568002 13
3.794365575510371 -1.402825635352134 0.070612436445249 12
3.798811589934283 -1.419561802248417 0.070786960509622 11
3.805308364624214 -1.436388444263953 0.070996389386869 10
3.802139623306930 -1.450375413513258 0.071031294199744 9
nan nan nan 0
3.841970782858406 -1.497149386899893 0.071973724147357 35
3.780900961421492 -1.488574264256046 0.070926579761120 6
nan nan nan 0
3.792948848918969 -1.523217928607057 0.071345437515615 9
nan nan nan 0
nan nan nan 0
3.783907687629592 -1.566572212876470 0.071485056767113 8
nan nan nan 0
4.608085957858889 -1.943689031140081 0.087296936999292 43
4.624502272749987 -1.971563477054639 0.087750699566662 65
4.610245053788425 -1.984531391191729 0.087611080315163 63
4.608791599120486 -2.003003228960738 0.087715794753787 62
4.618252413444726 -2.026309792631773 0.088029938069658 68
4.619178407285803 -2.044045246765929 0.088169557321156 66
4.613841033820439 -2.060972316042696 0.088204462134031 62
4.612087667447281 -2.079530917566210 0.088309176572655 66
4.619361285961622 -2.102243896999913 0.088588415075651 68
4.622527336658010 -2.124170418012343 0.088797843952899 70
4.625969069267950 -2.145340969533645 0.089007272830146 70
4.620640732752200 -2.161516761311790 0.089042177643020 74
4.613067480685726 -2.177632638725009 0.089042177643020 69
4.612659404433992 -2.197161765958374 0.089181796894519 72
4.622985110470602 -2.221911991091575 0.089530845023264 72
4.625605222219081 -2.244078209737760 0.089740273900512 71
4.614151569504620 -2.258452678599841 0.089670464274763 71
4.613412023267580 -2.278086840413934 0.089810083526261 69
4.625120891854052 -2.303984759394214 0.090194036467881 66
4.622410658896666 -2.322809039956412 0.090298750906505 64
4.624976215594263 -2.344354767218392 0.090508179783752 64
4.619369186642794 -2.359782673749178 0.090543084596627 66
4.618214279730601 -2.379556579221255 0.090682703848125 61
4.618332922723386 -2.401079336262200 0.090857227912498 62
4.627633495441847 -2.426471851696484 0.091206276041244 64
4.628401154914374 -2.446476711223580 0.091380800105616 68
4.621597801870518 -2.463558590056233 0.091415704918491 64
4.617820913835001 -2.483322375485868 0.091520419357115 70
4.619671563074771 -2.505145960669998 0.091729848234362 66
4.625376360211986 -2.528124177003551 0.092009086737359 68
4.634036746990777 -2.553906302600625 0.092358134866104 68
4.618101890965177 -2.566181340054069 0.092218515614606 70
4.616094334109018 -2.586195482466604 0.092358134866104 70
4.629216949471553 -2.615886157006854 0.092811897433474 72
4.625270150865485 -2.634998773197244 0.092916611872097 70
4.632114773062934 -2.659282752070417 0.093230755187969 72
4.621073184512170 -2.674433988128220 0.093195850375094 70
4.616421023449391 -2.694377096632897 0.093300564813718 72
4.619052456659693 -2.717573136934857 0.093544898503840 68
4.623776501855545 -2.741033362110614 0.093824137006836 70
4.619330095086188 -2.760233838553749 0.093928851445460 72
4.604527956297492 -2.773246352380142 0.093824137006836 59
4.572597498481271 -2.775812329762202 0.093370374439467 50
4.535103845272613 -2.775849971502129 0.092811897433474 44
4.508367561145408 -2.781164604102075 0.092462849304728 46
4.478253164475354 -2.784214880084865 0.092043991550233 46
4.415976356943871 -2.766915745004975 0.090961942351122 19
3.792939383349756 -2.394092161133644 0.078291495277654 27
3.765999301872912 -2.395511568149880 0.077907542336034 31
3.737412233979079 -2.395693072383301 0.077488684581539 30
3.712229516345217 -2.397874370033444 0.077139636452793 29
3.677021648869198 -2.393363975613619 0.076581159446800 30
3.655267838373832 -2.397410904832582 0.076301920943804 27
nan nan nan 0
2.957690348044517 -1.969552385367974 0.062025852478106 6
2.984008307488282 -2.002147878428547 0.062723948735597 1
2.927301806234926 -1.978953285709138 0.061676804349360 28
2.910805699087621 -1.981897056840137 0.061467375472113 18
2.895624908058929 -1.986389583690729 0.061292851407740 18
2.878803290598958 -1.989663396036771 0.061083422530492 20
2.860353168472583 -1.991701372414532 0.060839088840370 20
2.828827611766886 -1.984447626256946 0.060315516647252 20
2.810452122192230 -1.986231185396938 0.060071182957130 20
2.796985776087020 -1.991390161680701 0.059931563705632 19
2.780267862707003 -1.994148409274038 0.059722134828384 19
2.759975030930633 -1.994953726459815 0.059442896325388 19
2.735212414364709 -1.991627748730061 0.059058943383767 19
2.721793923660695 -1.996432405659536 0.058919324132269 20
2.701942101001324 -1.996414341561876 0.058640085629273 20
2.692098197590354 -2.002975990195499 0.058570276003523 20
2.677089240993921 -2.006364655766756 0.058395751939151 20
2.650917688409550 -2.001239138388531 0.057976894184656 22
2.640732386810910 -2.008059568540197 0.057907084558907 22
2.627356755628502 -2.012401400964834 0.057767465307408 22
2.610816521458994 -2.014231407688565 0.057558036430161 24
2.597453639066725 -2.018424563432512 0.057418417178663 24
2.563622187375282 -2.006526400462633 0.056825035359795 22
2.547180116812462 -2.008034891533976 0.056615606482548 22
2.537023121373233 -2.014427028828657 0.056545796856799 22
2.515920580165575 -2.012030227267814 0.056231653540927 24
2.511996645114748 -2.023308923564946 0.056301463166677 22
2.481624328997210 -2.013168029899068 0.055777890973558 22
2.468387744657259 -2.016757378750760 0.055638271722060 22
2.462039743918864 -2.024502082509109 0.055638271722060 22
2.445717168302380 -2.025431108690659 0.055428842844812 22
2.430953881236452 -2.027551771856279 0.055254318780440 26
2.410080953793915 -2.024449400029484 0.054940175464568 24
2.393839523375731 -2.025100709027146 0.054730746587321 26
2.389800350286639 -2.036038109861551 0.054800556213070 26
2.370537653577007 -2.033950505515996 0.054521317710074 24
2.357371098601567 -2.036983096235902 0.054381698458575 24
2.332144313046701 -2.029446948049414 0.053962840704081 24
2.319030369981044 -2.032303423196952 0.053823221452582 26
2.308923576786314 -2.037739553347599 0.053753411826833 24
2.292828433377045 -2.037816188223967 0.053543982949586 24
2.285701158720210 -2.045807237966222 0.053543982949586 24
2.260721683840598 -2.037707336514726 0.053125125195091 24
2.248028314317203 -2.039817941432042 0.052985505943593 24
2.230560820382059 -2.038210194098206 0.052741172253471 26
2.226017946398561 -2.049080550516375 0.052810981879220 24
2.211519135682976 -2.050041101006692 0.052636457814847 24
2.189375183434923 -2.044484857598024 0.052287409686101 26
2.170571187560246 -2.041155523193540 0.052008171183105 24
2.167052904235656 -2.050713435406977 0.052077980808854 24
2.154090809360425 -2.052747230330049 0.051938361557356 24
2.140423629883856 -2.055462861481654 0.051798742305857 24
2.117423291450197 -2.047630612258677 0.051414789364237 26
2.106680683353124 -2.050088723591724 0.051310074925614 26
2.100939942883305 -2.058829533850035 0.051344979738488 26
2.092317142017603 -2.064746050590827 0.051310074925614 26
2.076586485830227 -2.063579727279929 0.051100646048366 26
2.053822047491202 -2.055256386507378 0.050716693106746 26
2.042409676098314 -2.058154790727674 0.050611978668122 26
2.028194956478678 -2.058149965791499 0.050437454603749 26
2.020998315930103 -2.065217148432770 0.050437454603749 26
2.008202580811847 -2.066522809498970 0.050297835352251 26
1.991256614810538 -2.063447537725307 0.050053501662129 26
1.978507420834170 -2.064610614630957 0.049913882410631 24
1.971288531126051 -2.071504316045128 0.049913882410631 26
1.958913487960131 -2.072217283350093 0.049774263159133 24
1.951668165396026 -2.079042542832319 0.049774263159133 24
1.925309590510649 -2.065364353022594 0.049285595778889 24
1.914013135236743 -2.067669934745826 0.049180881340265 24
1.906783959429793 -2.074338490452278 0.049180881340265 24
1.894138983560801 -2.075074086766060 0.049041262088767 25
1.889206173033823 -2.084966219967592 0.049111071714516 24
1.865866310173674 -2.073709714704194 0.048692213960021 25
1.856314178368239 -2.076903833350452 0.048622404334272 24
1.846398343410431 -2.080379725674687 0.048552594708523 25
1.833836572205329 -2.080811286553783 0.048412975457024 25
1.826562012983152 -2.087199893765408 0.048412975457024 25
1.808771959336496 -2.081487723356747 0.048133736954028 25
1.796269679815608 -2.081732884411708 0.047994117702530 25
1.783787791737875 -2.081916199328138 0.047854498451031 25
1.779101233709170 -2.091176238605889 0.047924308076781 25
1.769209923181612 -2.094318551389381 0.047854498451031 27
1.751607712204098 -2.088224848331233 0.047575259948035 25
1.739188750767710 -2.088180152476018 0.047435640696537 27
1.726791506527527 -2.088074275340766 0.047296021445038 27
1.721126975898995 -2.095334273153653 0.047330926257913 27
1.704955346076949 -2.090481791521750 0.047086592567791 25
1.695130917511431 -2.093312349989517 0.047016782942042 25
1.676536415698553 -2.085190761126808 0.046702639626171 27
1.672990235044592 -2.095718670301644 0.046807354064794 25
1.661938300214392 -2.096844283615845 0.046702639626171 27
1.654608822651428 -2.102632756202568 0.046702639626171 27
1.633716694645903 -2.091062012686158 0.046318686684550 24
1.619053808451542 -2.087271592697754 0.046109257807303 24
1.616638424969378 -2.099247780583161 0.046248877058801 23
1.605657133618019 -2.100112350689279 0.046144162620178 24
1.597107577193250 -2.104111528226669 0.046109257807303 26
1.578922106634988 -2.095300405351951 0.045795114491432 24
1.569202794518652 -2.097596669088172 0.045725304865683 24
1.554717646812358 -2.093429087340493 0.045515875988435 24
1.548587400746085 -2.100452853224483 0.045550780801310 24
1.545525786295009 -2.110147298093570 0.045655495239934 24
1.529918889054706 -2.104207693959964 0.045411161549812 23
1.516346205047983 -2.101692611460009 0.045236637485439 24
1.506671985889899 -2.103721341954699 0.045166827859690 24
1.498528555529795 -2.107076476491511 0.045131923046815 26
1.490011097133269 -2.110660841861174 0.045097018233941 24
1.475749138972364 -2.106023167760524 0.044887589356693 26
1.468388755452557 -2.111161662967154 0.044887589356693 27
1.460641098261024 -2.116529396534000 0.044887589356693 27
1.450984033461639 -2.118315533922976 0.044817779730944 27
1.441702322418740 -2.119808489629164 0.044747970105195 30
1.427581262015569 -2.114883462200062 0.044538541227948 27
1.415369390703391 -2.113455517295607 0.044398921976449 28
1.407983431296250 -2.118383202568074 0.044398921976449 30
1.398748124924102 -2.119702482146848 0.044329112350700 31
1.391340460802701 -2.124572110315752 0.044329112350700 33
1.374828930520769 -2.116242193232410 0.044049873847704 31
1.359848677445350 -2.109263532397419 0.043805540157582 33
1.356080526931283 -2.118814171658069 0.043910254596205 33
1.348676223537755 -2.123534867527547 0.043910254596205 31
1.343387848614527 -2.131613201813562 0.043980064221954 31
1.325336255551997 -2.119334835308967 0.043631016093209 28
1.319667698407158 -2.127576885476112 0.043700825718958 33
1.311184919825351 -2.130467411948376 0.043665920906083 33
1.300613737221654 -2.129911342718617 0.043561206467460 27
1.289026256435322 -2.127597207176205 0.043421587215961 26
1.276150962931097 -2.121355092666417 0.043212158338714 28
1.267713448046485 -2.124079645027479 0.043177253525839 30
1.260566470666320 -2.130652689295833 0.043212158338714 30
1.254133639437016 -2.136764494735259 0.043247063151589 30
1.241636357337862 -2.132488666444290 0.043072539087216 30
1.230184418547686 -2.129883344401020 0.042932919835717 27
1.218513608043959 -2.125063835888878 0.042758395771345 31
1.216031545018561 -2.137995333464072 0.042932919835717 28
1.204867402111393 -2.137422814548354 0.042828205397094 31
1.196423188316810 -2.139870156781235 0.042793300584219 30
1.183500052756695 -2.133334066431075 0.042583871706972 30
1.175082144664274 -2.135700245518424 0.042548966894097 30
1.166077132327183 -2.136074821409912 0.042479157268348 31
1.160517784454901 -2.143649238420347 0.042548966894097 30
1.151510431090986 -2.143962510933068 0.042479157268348 37
1.135559297145659 -2.132084237140841 0.042165013952477 50
1.130164076305621 -2.141734444484191 0.042269728391101 15
nan nan nan 0
nan nan nan 0
nan nan nan 0
1.296378983363581 -2.542092952328680 0.049809167972007 1
1.283888562088233 -2.539464332505758 0.049669548720509 4
1.289801421632439 -2.572308970202950 0.050228025726502 22
1.282594675054695 -2.580376915739292 0.050297835352251 32
1.270494266217170 -2.577441458669214 0.050158216100753 32
1.253588806467305 -2.565690291657996 0.049844072784882 34
1.240267307219553 -2.561051725868156 0.049669548720509 29
1.215744636134032 -2.532915303424903 0.049041262088767 25
1.164372718745651 -2.446650620378057 0.047296021445038 40
1.152413190366678 -2.443465594683309 0.047156402193540 54
1.133293226700723 -2.425931999099330 0.046737544439045 52
1.124818239324670 -2.429873151097061 0.046737544439045 52
1.113418220395295 -2.426319950018956 0.046597925187547 54
1.108252687543313 -2.437473196261414 0.046737544439045 54
1.097669469024258 -2.437871994034839 0.046667734813296 54
1.081006774842768 -2.423426279466296 0.046318686684550 48
1.071347331907759 -2.423339830850169 0.046248877058801 49
1.065288295045968 -2.432560008097096 0.046353591497425 45
1.066339898433527 -2.458278169573116 0.046772449251920 25
1.079065331443400 -2.511592582561893 0.047714879199533 18
1.077338206708530 -2.531904342853865 0.048029022515404 19
1.074705820088358 -2.550391678190938 0.048308261018401 27
1.077348009584057 -2.581809582116868 0.048831833211519 64
1.062983784307070 -2.572617485983970 0.048587499521397 48
1.057783106851153 -2.585566313966081 0.048762023585770 43
1.044997767825328 -2.579975759601307 0.048587499521397 42
1.030775907576996 -2.570615484018610 0.048343165831275 39
1.023272023579145 -2.577915155618517 0.048412975457024 37
1.014717722562650 -2.581294273678355 0.048412975457024 37
1.007151323937431 -2.588547784036775 0.048482785082774 37
0.989486494058111 -2.569654127886936 0.048063927328279 37
0.979798635987434 -2.571223803155490 0.048029022515404 36
0.971522956627718 -2.576499370004798 0.048063927328279 39
0.962523376605173 -2.579874921072407 0.048063927328279 36
0.948664875743266 -2.570087204745258 0.047819593638157 33
0.930771071899126 -2.548964042461706 0.047365831070787 27
0.881107302672248 -2.439351636938710 0.045271542298313 26
0.875278101739513 -2.449944911834136 0.045411161549812 23
0.886040546664765 -2.507663657170586 0.046423401123174 13
0.889814365607431 -2.546608970289510 0.047086592567791 18
0.882878670652352 -2.555369686258754 0.047191307006415 39
0.875246217495806 -2.562220608303268 0.047261116632164 49
0.871415512680674 -2.580416811077835 0.047540355135160 51
0.858603736548062 -2.572062092369715 0.047330926257913 43
0.852126588128468 -2.582639507386499 0.047470545509411 43
0.838146853592392 -2.570388848473359 0.047191307006415 40
0.828556124855290 -2.571395539720979 0.047156402193540 39
0.817755301332167 -2.568555704247535 0.047051687754916 40
0.810584351935177 -2.577117242604611 0.047156402193540 37
0.802176921753376 -2.581840654794425 0.047191307006415 40
0.790537941604460 -2.572879022809126 0.046981878129167 40
0.780390805732757 -2.571795763305576 0.046912068503418 40
0.771656682735219 -2.578604790796282 0.046981878129167 40
0.759817943694931 -2.571693948362569 0.046807354064794 37
0.747364021243684 -2.560762172651740 0.046563020374672 33
0.720707498806198 -2.501865575169192 0.045446066362686 24
0.695565129440321 -2.446661784234593 0.044398921976449 53
0.682159454661132 -2.431746493923015 0.044084778660578 56
0.673666919371815 -2.434112859757028 0.044084778660578 63
0.664112864221618 -2.432591372605811 0.044014969034829 63
0.653537814872783 -2.427171044284416 0.043875349783331 63
0.643521899181450 -2.423639349564085 0.043770635344707 55
0.635564324256651 -2.427805400847377 0.043805540157582 60
0.629084509758627 -2.437754192396407 0.043945159409080 56
0.622476905700824 -2.445640633961402 0.044049873847704 37
0.632422428481743 -2.521504088292898 0.045376256736937 15
0.631771873751649 -2.556698474960897 0.045969638555805 50
0.630410296897865 -2.589975674022329 0.046528115561798 59
0.618552800158080 -2.578440273683347 0.046283781871676 50
0.609548595532342 -2.580583717150096 0.046283781871676 39
0.598275974417912 -2.575009237787387 0.046144162620178 42
0.587055110912620 -2.567335016915872 0.045969638555805 39
0.578528807228628 -2.571319505856100 0.046004543368679 39
0.569549702561047 -2.573323282897441 0.046004543368679 38
0.561864433209826 -2.579105564471906 0.046074352994428 38
0.549507595580178 -2.565408390468935 0.045795114491432 39
0.539725293281694 -2.563397316899378 0.045725304865683 39
0.531584420723254 -2.569182128836537 0.045795114491432 37
0.523460458071920 -2.572890350979944 0.045830019304306 39
0.514868038228203 -2.576662824652610 0.045864924117181 38
0.503560758006518 -2.566670633086820 0.045655495239934 37
0.492329537950204 -2.556631041256031 0.045446066362686 39
0.483402230747813 -2.558334016183227 0.045446066362686 37
0.471553709119571 -2.544276136168531 0.045166827859690 33
0.448367656543733 -2.467207850191589 0.043770635344707 39
0.435895281989026 -2.447102143133744 0.043386682403087 37
0.439383849831801 -2.517555943279334 0.044608350853697 26
0.440364158372064 -2.576236435141455 0.045620590427059 59
0.429388462544908 -2.565924272974558 0.045411161549812 46
0.423337525113695 -2.585168183373289 0.045725304865683 46
0.412678246585584 -2.570690047408907 0.045446066362686 42
0.402462096562365 -2.564212859081864 0.045306447111188 41
0.393508871380058 -2.565602091906567 0.045306447111188 41
0.385143379692787 -2.570915318014843 0.045376256736937 39
0.376006930850069 -2.574288370474335 0.045411161549812 39
0.365326066320475 -2.563707016924946 0.045201732672564 41
0.356650026023527 -2.566947293102535 0.045236637485439 41
0.347955812407019 -2.570158213042556 0.045271542298313 41
0.339766242080693 -2.577304773608839 0.045376256736937 41
0.330258826169087 -2.574508192565636 0.045306447111188 41
0.320679928016484 -2.563627633396424 0.045097018233941 42
0.311246690888872 -2.560761224303368 0.045027208608191 42
0.301879108505472 -2.565909441658912 0.045097018233941 41
0.292013699088885 -2.559000357917357 0.044957398982442 44
0.281760649234457 -2.548078600772441 0.044747970105195 44
0.266479194270514 -2.489396528649547 0.043700825718958 27
0.251632984602267 -2.422595590598132 0.042514062081223 53
0.243574317000193 -2.427438601894667 0.042583871706972 65
0.234443858932720 -2.430346419113269 0.042618776519846 61
0.227069301787063 -2.443096657320050 0.042828205397094 33
0.218320153055521 -2.431847846938160 0.042618776519846 65
0.208798983753307 -2.420641326511658 0.042409347642599 57
0.200512992159069 -2.423348308726773 0.042444252455474 65
0.192842396766315 -2.434000708688758 0.042618776519846 57
0.185099867308958 -2.444628964188086 0.042793300584219 51
0.174693165231033 -2.419331655962465 0.042339538016850 57
0.166098110582093 -2.423945722348912 0.042409347642599 55
0.159841554961454 -2.458433941062149 0.043002729461467 42
0.157797088274213 -2.550734438150372 0.044608350853697 52
0.149824435960201 -2.567240102271494 0.044887589356693 52
0.139438226134610 -2.541790435132151 0.044433826789324 49
0.130975131078373 -2.550249933427516 0.044573446040822 49
0.121722362488241 -2.552710277627368 0.044608350853697 48
0.112810999170698 -2.553119615979679 0.044608350853697 46
0.104507221684333 -2.557475728641818 0.044678160479446 48
0.095131300615619 -2.545835141471826 0.044468731602198 52
0.085462975834555 -2.536173910231730 0.044294207537826 60
0.076790666177595 -2.542453132176743 0.044398921976449 52
0.068520389991348 -2.548690719271617 0.044503636415073 50
0.059810435421925 -2.556910966681893 0.044643255666571 49
0.050769211547796 -2.529105149947720 0.044154588286327 59
0.041675440285574 -2.513271595223723 0.043875349783331 72
0.032666654498495 -2.495406041303694 0.043561206467460 85
0.024032644464130 -2.503503279373035 0.043700825718958 83
0.015330286887988 -2.509570891000180 0.043805540157582 85
0.006517804465266 -2.489612229148447 0.043456492028836 92
-0.002607124287759 -2.489619395852205 0.043456492028836 71
-0.011243056079612 -2.477597078868708 0.043247063151589 77
-0.019223421109430 -2.447551667156624 0.042723490958470 100
-0.027834909698497 -2.453468353703495 0.042828205397094 60
-0.037377887574329 -2.519338930646592 0.043980064221954 68
-0.046135149578296 -2.517193749185370 0.043945159409080 60
-0.055663107555908 -2.551004103642820 0.044538541227948 52
-0.064618035959543 -2.552793316611585 0.044573446040822 48
-0.073643712155399 -2.556549937588441 0.044643255666571 50
-0.082050839123694 -2.540288072990977 0.044364017163575 50
-0.090030971440003 -2.540017767292718 0.044364017163575 49
-0.099363600638265 -2.551677111778888 0.044573446040822 49
-0.109033072541102 -2.569295797181397 0.044887589356693 45
-0.117725649966942 -2.562906780484599 0.044782874918069 44
-0.126868607790538 -2.566474740387386 0.044852684543819 44
-0.135297995752325 -2.556031751430639 0.044678160479446 42
-0.144557401510157 -2.561533457088293 0.044782874918069 44
-0.153378301343484 -2.559017138639062 0.044747970105195 46
-0.162368498865604 -2.566477269507345 0.044887589356693 46
-0.170660066695186 -2.555918598748356 0.044713065292320 48
-0.180191038780971 -2.551255018469640 0.044643255666571 48
-0.189539021989335 -2.556593158544158 0.044747970105195 52
-0.196028741269370 -2.536047607661117 0.044398921976449 46
-0.201980759809830 -2.499470324718453 0.043770635344707 22
-0.204319329842627 -2.423030354099213 0.042444252455474 41
-0.212951019689572 -2.424294409598583 0.042479157268348 52
-0.221957887113937 -2.429510508357262 0.042583871706972 61
-0.231003757793924 -2.434693193915401 0.042688586145595 55
-0.239501015682955 -2.433872007337223 0.042688586145595 55
-0.247184250322534 -2.425063613971545 0.042548966894097 51
-0.255857515402530 -2.426174673365973 0.042583871706972 47
-0.265191525660902 -2.433218477251470 0.042723490958470 61
-0.274130622687590 -2.436252272473034 0.042793300584219 53
-0.285860517488289 -2.463089611806775 0.043281967964463 42
-0.305171411132426 -2.555450719412336 0.044922494169568 37
-0.314821883509145 -2.560324145913699 0.045027208608191 42
-0.325513986433327 -2.573096798042043 0.045271542298313 41
-0.334751685332978 -2.573927861269016 0.045306447111188 39
-0.343999149279484 -2.574725761532807 0.045341351924063 39
-0.352712788058234 -2.571528147812182 0.045306447111188 39
-0.361129648739028 -2.566320912012104 0.045236637485439 37
-0.371227819782546 -2.572961504015177 0.045376256736937 37
-0.380791803496861 -2.575606386356768 0.045446066362686 38
-0.390977508544228 -2.582170120863386 0.045585685614185 37
-0.398150962535104 -2.568933009316692 0.045376256736937 37
-0.406489454528533 -2.563577509888721 0.045306447111188 39
-0.416715766287534 -2.570038642740523 0.045446066362686 38
-0.426992122518090 -2.576459522789866 0.045585685614185 37
-0.435200135743640 -2.573057707906511 0.045550780801310 45
-0.441456194678083 -2.555758774931288 0.045271542298313 60
-0.451416498541809 -2.560110181255642 0.045376256736937 45
-0.459287853968613 -2.552614572287567 0.045271542298313 15
-0.459531744236212 -2.503791567019124 0.044433826789324 11
-0.459808334827582 -2.456964108337312 0.043631016093209 18
-0.469131349861795 -2.459272659630959 0.043700825718958 30
-0.492593790213734 -2.534175361686104 0.045062113421066 27
-0.510370131322312 -2.577557513963514 0.045864924117181 28
-0.519364376756758 -2.575760286379885 0.045864924117181 30
-0.529960672268207 -2.581767082414382 0.046004543368679 30
-0.536515913613212 -2.568156825804939 0.045795114491432 33
-0.546308705332618 -2.570180384178030 0.045864924117181 28
-0.557812492156428 -2.579984956853505 0.046074352994428 31
-0.565057540967195 -2.574313414754611 0.046004543368679 31
-0.576217823172860 -2.582083754255261 0.046179067433052 33
-0.585677762885812 -2.579954466999773 0.046179067433052 34
-0.593780929423794 -2.573997308506183 0.046109257807303 33
-0.603674824022880 -2.575802826415865 0.046179067433052 35
-0.613588547402940 -2.577570587950357 0.046248877058801 35
-0.623052082997961 -2.577356768747307 0.046283781871676 42
-0.629661664653279 -2.565455929149929 0.046109257807303 52
-0.637199375437605 -2.559472860796353 0.046039448181554 63
-0.647599310929005 -2.563049326240204 0.046144162620178 22
-0.649147070729165 -2.533767877355411 0.045655495239934 12
-0.646920546330571 -2.488907975610408 0.044887589356693 12
-0.642179139121962 -2.432269278434827 0.043910254596205 19
nan nan nan 0
-0.659866181994889 -2.433746762578299 0.044014969034829 52
-0.668887545272069 -2.433356747456876 0.044049873847704 55
-0.678763432180565 -2.432696597487017 0.044084778660578 50
-0.688339276182890 -2.434160925903889 0.044154588286327 60
-0.695432824674211 -2.430063916833434 0.044119683473453 52
-0.710593794168473 -2.450668638970707 0.044538541227948 52
-0.742814775495254 -2.528755779290554 0.046004543368679 26
-0.761332120912362 -2.558730551471823 0.046597925187547 28
-0.770127916197829 -2.554008394235692 0.046563020374672 27
-0.779038377330850 -2.551304586241969 0.046563020374672 27
-0.787639671758008 -2.550755256946686 0.046597925187547 27
-0.801311936077149 -2.563259197315913 0.046877163690544 27
-0.813271082689920 -2.569979043638252 0.047051687754916 27
-0.816747315848649 -2.549984985052625 0.046737544439045 25
-0.828555768029766 -2.554582915230769 0.046877163690544 25
-0.839962198470127 -2.559275078467145 0.047016782942042 27
-0.851593827525994 -2.565965107608179 0.047191307006415 27
-0.861182027231641 -2.564872550613461 0.047226211819289 25
-0.869290086762089 -2.557912238289133 0.047156402193540 27
-0.876913476614864 -2.551080086420571 0.047086592567791 25
-0.893036151995381 -2.568780445763772 0.047470545509411 27
-0.902660661815185 -2.567534023494343 0.047505450322286 27
-0.912508919594120 -2.568295167285499 0.047575259948035 25
-0.921468383437909 -2.565094269800859 0.047575259948035 25
-0.933380956124938 -2.571422942432860 0.047749784012408 22
-1.000903734843624 -2.727719840932423 0.050716693106746 27
-1.068137524981574 -2.879824958043792 0.053613792575335 11
-1.074673770730256 -2.866716681342164 0.053439268510962 3
-1.062491977639398 -2.802922969483356 0.052322314498976 3
-1.062255006293013 -2.773053835509113 0.051833647118732 4
-1.067115873076876 -2.758326060044086 0.051624218241485 8
-1.068001517871793 -2.732234757278544 0.051205360486990 21
-1.083408403739498 -2.743369382123646 0.051484598989986 29
-1.093718951460577 -2.741428203682140 0.051519503802861 30
-1.104029139187727 -2.739448448643758 0.051554408615735 30
-1.114338823157873 -2.737430095900732 0.051589313428610 30
-1.127210782407295 -2.742967800969004 0.051763837492983 32
-1.143677518515730 -2.755638876477935 0.052077980808854 50
-1.144013738515885 -2.729498836983113 0.051659123054359 17
-1.150416836966078 -2.718122668672787 0.051519503802861 11
-1.154396976425202 -2.701218702317579 0.051275170112739 13
-1.164611208852879 -2.699008708475273 0.051310074925614 13
-1.179143398174219 -2.707965839794594 0.051554408615735 13
-1.185369852262236 -2.696510862722870 0.051414789364237 13
-1.200113712202372 -2.703114133342282 0.051624218241485 13
-1.212813272686379 -2.706207765624021 0.051763837492983 13
-1.222956155145197 -2.706028735179811 0.051833647118732 13
-1.233224402803140 -2.703562691274489 0.051868551931607 13
-1.243596221803523 -2.698807531195309 0.051868551931607 13
-1.256382079515307 -2.701703022244114 0.052008171183105 6
-1.264014614240060 -2.695932090125856 0.051973266370230 9
-1.278548772015677 -2.702348978924431 0.052182695247478 11
-1.302234164052976 -2.726515826237320 0.052741172253471 8
-1.304798511400806 -2.707542167751669 0.052461933750474 6
-1.317266264092596 -2.710394559119635 0.052601553001973 8
-1.324078168092135 -2.700393505902913 0.052496838563349 14
-1.339288387199388 -2.706275792539508 0.052706267440596 16
-1.350513286457484 -2.705162573449384 0.052776077066345 14
-1.357207501005900 -2.697333840774219 0.052706267440596 13
-1.368424770296979 -2.696146200362129 0.052776077066345 13
-1.382855310606388 -2.700011745116604 0.052950601130718 9
-1.401449481811386 -2.712934665140209 0.053299649259464 6
-1.425694463700545 -2.736401030260146 0.053858126265457 9
-1.489186907075452 -2.834078949183913 0.055882605412182 15
-1.530401731298167 -2.889206401065147 0.057069369049917 25
-1.545188560713739 -2.892665803120113 0.057243893114290 28
-1.563811488481703 -2.903099154513146 0.057558036430161 36
-1.579662541641949 -2.908165946861571 0.057767465307408 57
-1.577316422524605 -2.879834030410851 0.057313702740039 25
-1.577692078831855 -2.856805686867106 0.056964654611293 19
-1.583763269561070 -2.844292675050440 0.056825035359795 15
-1.581935012810393 -2.817822556225381 0.056406177605300 13
-1.581423579891822 -2.795156714604207 0.056057129476555 13
-1.577300133244832 -2.765301509001521 0.055568462096311 13
-1.574981343794813 -2.738976503703387 0.055149604341816 14
-1.578515348422668 -2.723081870218739 0.054940175464568 14
-1.579939848642005 -2.703743008616678 0.054660936961572 16
-1.583278514718288 -2.687873542058628 0.054451508084325 14
-1.576316413315217 -2.654819411243303 0.053893031078331 16
-1.573250746097504 -2.628710444817188 0.053474173323837 14
-1.576219617249926 -2.612929119818511 0.053264744446589 14
-1.577019799324955 -2.593741908651857 0.052985505943593 16
-1.576806542226830 -2.575131681635553 0.052706267440596 16
-1.573183551390951 -2.549191154154838 0.052287409686101 14
-1.571511074389682 -2.526703652918032 0.051938361557356 14
-1.575011122325545 -2.512730878880352 0.051763837492983 16
-1.573093075911395 -2.490311364860679 0.051414789364237 22
-1.574259373548470 -2.472996766932962 0.051170455674115 30
-1.573164594734428 -2.452338229805869 0.050856312358244 30
-1.579544073786701 -2.443473194063221 0.050786502732495 45
-1.587397496068541 -2.435992090460051 0.050751597919620 69
-1.594793437663573 -2.428764646528256 0.050716693106746 53
-1.602415744299562 -2.423742477958663 0.050716693106746 52
-1.610866421945309 -2.418134236904443 0.050716693106746 52
-1.619297471692065 -2.412496531647663 0.050716693106746 52
-1.636670711200016 -2.420081072621182 0.050995931609742 52
