# This PCD file was generated using the MATLAB® pcwrite function
# from Computer Vision Toolbox®.
# .PCD v.7 - Point Cloud Data file format
VERSION .7
FIELDS x y z intensity
SIZE 8 8 8 1
TYPE F F F U
COUNT 1 1 1 1
WIDTH 845
HEIGHT 1
VIEWPOINT 0 0 0 1 0 0 0
POINTS 845
DATA ascii
nan nan nan 0
0.040622606267980 2.502472563652569 0.396404934411945 1
0.215212219252953 10.815021623327619 1.713270261120609 13
0.249506031517558 10.828116112679306 1.715460343631172 30
0.288297264251238 10.864698155883170 1.721404853302700 56
0.324797392169493 10.816237939261397 1.713895998980769 37
0.362683495902091 10.818986823899001 1.714521736840930 42
0.400738894765096 10.825551007744579 1.715773212561252 42
0.440654757616781 10.829930743725399 1.716711819351494 41
0.478542784103735 10.830300043101937 1.717024688281574 41
0.515874240189750 10.818697961295412 1.715460343631172 44
0.552049385307962 10.822846211564375 1.716398950421413 42
0.592144826870201 10.828639873852394 1.717650426141735 41
0.629940226421889 10.826506930894684 1.717650426141735 41
0.667971202791645 10.828185327951495 1.718276164001896 38
0.703875086586371 10.825910718581875 1.718276164001896 42
0.741795322660086 10.825358536102421 1.718589032931976 41
0.779720278631030 10.824673507264158 1.718901901862057 41
0.819986023540981 10.829621936096817 1.720153377582379 41
0.854004181826724 10.826992436268458 1.720153377582379 41
0.893356263424866 10.819852276386721 1.719527639722218 41
0.929400348685057 10.818798436825722 1.719840508652298 41
0.970457276743920 10.831059305510697 1.722343460092942 41
1.007283077800437 10.837616097736710 1.723907804743344 45
1.046808142959160 10.831885210298033 1.723594935813264 44
1.082525676053595 10.826388736723041 1.723282066883183 42
1.120717023940421 10.826473813435062 1.723907804743344 45
1.158501946915395 10.840375582121968 1.726723625114068 46
1.196334861292375 10.836265612383700 1.726723625114068 48
1.235271293650175 10.841836999542616 1.728287969764471 45
1.272417435660481 10.831573387447447 1.727349362974229 46
1.312583905692855 10.830759047334240 1.727975100834390 44
1.353251180510522 10.833716014802297 1.729226576554712 48
1.389287572865472 10.845086116843452 1.731729527995356 48
1.428682554430510 10.851921388594223 1.733606741575838 48
1.463074978053523 10.835378371356613 1.731729527995356 48
1.504679331142435 10.843639559425412 1.733919610505919 48
1.542297812559899 10.850324550116671 1.735796824086402 48
1.580447933812144 10.846829558093148 1.736109693016482 48
1.619758997521494 10.851015331698996 1.737674037666885 48
1.658223154002028 10.849200609350637 1.738299775527046 48
1.695473287665057 10.839442940927951 1.737674037666885 48
1.737689817977256 10.848760027905438 1.740176989107528 48
1.772400667424324 10.847146433043838 1.740802726967689 48
1.814425379704990 10.854215798830863 1.742992809478252 48
1.849412829179873 10.842297512158664 1.742054202688011 48
1.891514409643859 10.849068398330880 1.744244285198574 46
1.929555235555927 10.854405571215786 1.746121498779057 46
1.971795697862445 10.860865727032065 1.748311581289620 45
2.008519396487160 10.858152148852033 1.748937319149781 45
2.046775267997516 10.853016114510117 1.749250188079862 46
2.086913008961091 10.847381214033874 1.749563057009942 45
2.126284581674825 10.847784398194520 1.750814532730264 42
2.168004755117041 10.859667700057916 1.753943222031068 45
2.206685839147593 10.855905368613515 1.754568959891230 45
2.241179294477102 10.850853843678843 1.754881828821310 48
2.282967889357416 10.852231957337603 1.756446173471712 45
2.324142550604962 10.859649873749960 1.758949124912356 48
2.209104128895290 10.148885487502547 1.645064834363068 24
2.411656707905997 10.905299314964155 1.768960930674931 56
2.443805514663343 10.861697308513239 1.763329289933482 44
2.478930774425301 10.849682133736238 1.762703552073322 45
2.520808558548606 10.858280782733189 1.765519372444045 48
2.564219325851508 10.864349051423881 1.768022323884689 46
2.604890191234236 10.866857812582818 1.769899537465172 46
2.638577469726738 10.848562834869105 1.768335192814770 38
2.683534303907702 10.859913755836402 1.771776751045655 46
2.720997686764084 10.864842992978179 1.773966833556218 45
2.762748705670069 10.862454766015265 1.775218309276540 45
2.803687308765733 10.872361446682911 1.778346998577345 42
2.843017406701703 10.860101411082708 1.778034129647264 44
2.881041574086510 10.858251156743284 1.779285605367586 41
2.925442065473049 10.864785650437025 1.782101425738310 42
2.964574418055594 10.866459162683336 1.783978639318793 42
2.804498031346944 10.140177811943181 1.666339921608539 19
3.058262864183921 10.902025833781856 1.793364707221207 56
3.089817269972673 10.868483071877204 1.789610280060241 42
3.126934421333112 10.861973675388034 1.790236017920402 42
3.170361721714111 10.869956098365041 1.793364707221207 42
3.206731208901811 10.867520955111129 1.794616182941528 42
3.249371094989634 10.865157476969465 1.796180527591931 44
3.291858549801645 10.868873402075907 1.798683479032575 44
3.334990675903501 10.874313471014441 1.801499299403299 45
3.372789218082912 10.868854331745380 1.802437906193540 41
3.420303624500770 10.880917519692245 1.806505202284586 42
3.457066402273413 10.865147364405258 1.805879464424425 42
3.499210313933985 10.866175762074915 1.808069546934988 41
3.541341975358214 10.873294899092103 1.811198236235793 41
3.583603305834905 10.873999915019469 1.813388318746356 38
3.625888156025741 10.880797077395922 1.816517008047161 39
3.664481173197674 10.863690930164502 1.815891270187000 38
3.704311773039993 10.862697272203574 1.817768483767483 38
3.750544902921892 10.867720387288152 1.820897173068287 38
3.795562003374818 10.868820408143570 1.823400124508931 38
3.839321292455263 10.866011165665022 1.825277338089414 38
3.876853389615521 10.869456426548298 1.827780289530058 41
3.920688493092630 10.866322798511112 1.829657503110540 41
3.967261604995354 10.870436335788737 1.832786192411345 42
4.010652031567747 10.871348032334380 1.835289143851989 41
4.060137569426810 10.882485917809372 1.839669308873115 42
4.070221568627368 10.794313439334276 1.827154551669897 19
4.071543441865073 10.690301767859349 1.811823974095954 19
4.076906319171980 10.593064346024809 1.797744872242333 19
4.072652103075527 10.478221058471014 1.780537081087908 17
4.074910657432394 10.371295849244163 1.764893634583885 19
4.074649051855701 10.265207396039985 1.749250188079862 19
4.077372864388956 10.168415600587393 1.735171086226241 20
4.073265479118237 10.061456599743092 1.719214770792137 19
4.079448282098331 9.971499818293537 1.706387144658838 6
4.070807664079792 9.861860256324238 1.689805091364574 9
4.087725275484911 9.805654729219233 1.682609105972723 24
4.081147154549731 9.699186686454718 1.666652790538620 20
4.080989833818956 9.604886464915747 1.652886557615080 20
4.082560768495041 9.516152598230653 1.640058931481780 22
4.085207691259046 9.426812844125624 1.627231305348482 22
4.082458067878072 9.331056751106861 1.613152203494861 22
4.084694056650236 9.243757798054601 1.600637446291642 23
4.086366500354790 9.165211322660086 1.589374164808746 23
4.094789919161968 9.094334813060696 1.579675227976251 23
4.091490435098710 9.011278119601888 1.567473339703113 24
4.094030626409105 8.929782369486018 1.555897189290136 24
4.082989455363158 8.828304232538578 1.540566611716194 23
4.089552913975719 8.762087929855241 1.531493412743860 20
4.098905826559915 8.698792907881618 1.523045951631688 26
4.095315601672857 8.613072717291631 1.510531194428469 24
4.094813829804136 8.538885333315905 1.499893650805734 23
4.091901242602867 8.456969341172449 1.488004631462676 23
4.096266177989844 8.391154939401881 1.478931432490343 23
4.113897760189126 8.349505516076006 1.474238398539136 24
4.118710670685407 8.289821834042487 1.466103806357044 24
4.115758519482466 8.211818973680035 1.454840524874147 26
4.114456520230198 8.141708267652779 1.444828719111573 26
4.119142072711057 8.077300054271694 1.436068389069319 26
4.123323536122756 8.019676706578508 1.428246665817308 26
4.124011091261841 7.952626429226631 1.418860597914894 26
4.123365632213771 7.883919283961109 1.409161661082400 26
4.125055886120719 7.820555865691505 1.400401331040147 27
4.124498961995117 7.753789322016625 1.391015263137733 26
4.127670335388876 7.691624527702384 1.382567802025561 26
4.128718140110097 7.632720083378219 1.374433209843468 27
4.130172067738309 7.568983833794977 1.365672879801216 28
4.125380961848992 7.504040112065185 1.356286811898802 28
4.125075423176431 7.438770881957006 1.347213612926468 27
4.131410170004552 7.392288089613165 1.341269103254940 28
4.136166046274283 7.337517519832089 1.334073117863089 31
4.134130915548391 7.277386494564565 1.325625656750916 28
4.133002357582636 7.216628929988726 1.317178195638744 31
4.137689152406518 7.163800058875321 1.310295079176974 30
4.140803332695058 7.111757097609030 1.303411962715204 31
4.146604582138098 7.064890986256172 1.297467453043675 31
4.140059187530201 6.997670053124971 1.287768516211180 33
4.134920163223859 6.936393104739498 1.279008186168928 31
4.147085575148880 6.899181615177231 1.274940890077882 31
4.150325428726713 6.855701923597131 1.269309249336433 34
4.140277441657139 6.785526106862610 1.258984574643778 31
4.143383368322396 6.734973542364791 1.252414327112088 28
4.146174637049878 6.684489839057187 1.245844079580399 30
4.149363624197997 6.642949531267496 1.240525307769031 31
4.150427434161815 6.593318665366603 1.233955060237341 33
4.155428258547734 6.550433944314362 1.228636288425973 34
4.144220710874171 6.482629795832472 1.218624482663399 30
4.149707456540827 6.441554313047210 1.213618579782111 31
4.153923450067216 6.396481183126301 1.207986939040663 31
4.154510653446221 6.356018762553741 1.202668167229295 33
4.156042099874379 6.307758658107256 1.196410788627686 33
4.143075381390200 6.242918977924292 1.186711851795191 31
4.149454190170766 6.203063552627604 1.182018817843985 33
4.157833104010749 6.168884899626571 1.178264390683019 36
4.149334115664595 6.107852539864292 1.169504060640766 37
4.158465470991518 6.080112455916165 1.166688240270042 37
4.146038076398495 6.016761915755604 1.157302172367628 31
4.152203796160102 5.976463821457686 1.152609138416421 34
4.159447286421750 5.942513535862152 1.148854711255455 36
4.147263493209943 5.883479779842381 1.140094381213203 37
4.163200458123079 5.862524949379092 1.138842905492881 36
4.150444413046067 5.803697144655084 1.130082575450628 36
4.155518814810221 5.766010185814058 1.125702410429501 39
4.157051999768139 5.725893293556295 1.120696507548214 35
4.161854312982561 5.690619639514576 1.116629211457168 40
4.154931554833581 5.641794340393016 1.109746094995398 42
4.152037555505789 5.594802301284747 1.103488716393789 42
4.150465788156268 5.554102674074383 1.098169944582421 40
4.157948086781394 5.523798725230873 1.095041255281616 39
4.161924254895821 5.491088740430284 1.091286828120650 39
4.166681973043179 5.457686195850753 1.087532400959685 42
4.150523999285697 5.395406844332375 1.078146333057271 45
4.149698260086857 5.353616476183486 1.072827561245903 43
4.154059846404650 5.322696343869726 1.069386003015018 45
4.157666983290682 5.287248935763514 1.065318706923972 42
4.159545783879603 5.255573817552246 1.061564279763007 47
4.159075066671870 5.215581941263071 1.056558376881719 47
4.155323732290601 5.175575327690058 1.051239605070351 49
4.155630140906013 5.137273440889849 1.046546571119145 47
4.161416262047153 5.109679521644352 1.043730750748420 49
4.160435530932513 5.072212615420133 1.039037716797214 47
4.156347778062853 5.029520954302011 1.033406076055765 47
4.157451142112211 4.995243905657723 1.029338779964719 49
4.162172917129191 4.965562350603992 1.026210090663915 52
4.164189824285448 4.932889976827811 1.022455663502949 50
4.167732676702422 4.904001718516295 1.019326974202144 50
4.154845018408051 4.852680801916799 1.011818119880213 52
4.157175172432501 4.824639283754610 1.008689430579409 49
4.161044357297834 4.795178980204919 1.005560741278604 49
4.163458820220217 4.764263195426786 1.002119183047719 45
4.170450310514640 4.737110046962813 0.999616231607075 48
4.163042511292053 4.698849392204326 0.994297459795707 52
4.159692545715667 4.662179426562914 0.989604425844501 48
4.162226809957391 4.630741493650019 0.986162867613615 54
4.162458272750748 4.598610092597138 0.982408440452650 52
4.164380197682225 4.570180383544630 0.979279751151845 56
4.158393909902864 4.530147470094644 0.973960979340477 50
4.160772869582777 4.501098731683213 0.970832290039673 48
4.173203689816897 4.481481586093096 0.969893683249431 48
4.170479116367985 4.448882930557637 0.965826387158385 50
4.169125769029849 4.414896802051051 0.961759091067339 52
4.159077996965634 4.378160359198583 0.956440319255972 50
4.154610575697244 4.341479479304220 0.951747285304765 54
4.158020797931367 4.316297283389672 0.949244333864121 52
4.159307830231122 4.287578286222960 0.946115644563316 56
4.168199036306866 4.262373350515603 0.944238430982834 52
4.162261584375655 4.226685338435706 0.939545397031627 48
4.161615052227492 4.199557108381328 0.936416707730822 54
nan nan nan 0
2.609540151290442 2.597725220666333 0.583187685669981 12
2.616233629618577 2.585366351644741 0.582561947809820 24
2.621012589641909 2.572067513522893 0.581623341019578 28
2.628560087084235 2.561524156362147 0.581310472089498 39
2.628968285048712 2.544090968330665 0.579433258509015 37
2.631152413131086 2.527595793886026 0.577868913858613 37
2.633364704926479 2.513861305021085 0.576617438138291 39
2.624920482414012 2.488345721891832 0.572863010977325 39
2.630713769050238 2.476459886326634 0.572237273117165 39
2.636456095947997 2.464563958776436 0.571611535257004 35
2.637804207252274 2.448626383236880 0.570047190606601 37
2.639497813811888 2.432248865707579 0.568482845956199 33
2.633398548113372 2.409685200258916 0.565354156655394 35
2.633439540085305 2.392048060415645 0.563476943074912 33
2.640941372844980 2.383763075437368 0.563476943074912 33
2.637890832156492 2.363521977544242 0.560973991634268 35
2.642762890451697 2.352134804670792 0.560348253774107 35
2.641003462800299 2.333277558570469 0.558158171263544 35
2.641302808429395 2.317991972884965 0.556593826613141 36
2.644910264843686 2.304864631080982 0.555655219822900 35
2.643976996246041 2.287862662644753 0.553778006242417 32
2.653445294426716 2.279906877820955 0.554090875172498 34
2.648256896840655 2.258629500889690 0.551275054801774 35
2.647080157994367 2.241711990692360 0.549397841221291 37
2.651086725618963 2.230841175839179 0.548772103361130 37
2.653180946840394 2.216044229168480 0.547520627640808 37
2.659379706267051 2.205508387356928 0.547207758710728 37
2.650288189506477 2.182399329127966 0.543766200479842 37
2.657890038350677 2.173134800984963 0.543766200479842 35
2.653566296228004 2.153420536440182 0.541263249039199 35
2.658406394107252 2.144297584298757 0.540950380109118 34
2.664333334014764 2.133770129785284 0.540637511179038 39
2.653579596013205 2.109240593606533 0.536883084018072 30
2.653172772120665 2.093846242817116 0.535318739367670 30
2.653882805223498 2.080162064368854 0.534067263647348 31
2.653693345816553 2.064356623170687 0.532502918996946 30
2.665213934148982 2.059168478727263 0.533441525787187 31
2.658634939979074 2.038568276186438 0.530625705416463 33
2.653160453743587 2.019703434523029 0.528122753975819 33
2.663697520880178 2.012347025151967 0.528748491835980 33
2.668426454893603 2.002783075439778 0.528435622905900 31
2.670996435819550 1.989449405697048 0.527497016115658 33
2.661697750252092 1.968833904659391 0.524368326814854 30
2.660592967041296 1.953684995070440 0.522803982164452 31
2.670928690920922 1.946246966911035 0.523429720024613 31
2.671303922058733 1.932280838069073 0.522178244304291 31
2.675756998150984 1.922726453979236 0.521865375374210 31
2.669586785855303 1.904197748500036 0.519362423933567 33
2.671710953298866 1.890976818430467 0.518423817143325 31
2.677007234181050 1.880036519188895 0.518110948213245 33
2.680312470458438 1.868421290226273 0.517485210353084 33
2.683569275283972 1.856805921588520 0.516859472492923 33
2.677672358495784 1.841001401293007 0.514669389982360 34
2.656660440313686 1.812250880160118 0.509350618170992 28
2.680646388939465 1.815616457649256 0.512792176401877 31
2.678770768705263 1.800737980043987 0.511227831751475 30
2.686683428750420 1.792472667915500 0.511540700681555 31
2.661630040258034 1.762362624556073 0.505596191010026 28
2.672718153468999 1.756315510019400 0.506534797800268 28
2.679137419479819 1.746507711451758 0.506534797800268 31
2.673305669505489 1.730100923515492 0.504344715289704 28
2.692927256512423 1.728828572722721 0.506847666730348 30
2.675323824665204 1.705025760188052 0.502467501709222 28
2.676545955299097 1.692042114349815 0.501528894918980 28
2.685782747845518 1.684788341648240 0.502154632779141 28
2.686908102812596 1.671802423234251 0.501216025988900 28
2.688785974566970 1.661276420829218 0.500590288128739 28
2.677727477136804 1.641556430914918 0.497461598827934 25
2.678378168057406 1.629119795242632 0.496522992037693 25
2.682357267858145 1.618739942453425 0.496210123107612 25
2.686296558563576 1.608352173110316 0.495897254177532 25
2.695291101678336 1.600983071613039 0.496522992037693 25
2.685270104504832 1.583007799885147 0.493707171666969 27
2.689348724228793 1.572158230432211 0.493394302736888 28
2.687984888104563 1.558797189867124 0.492142827016566 28
2.698546556799657 1.552359874648833 0.493081433806808 27
2.705395062824598 1.544381952779515 0.493394302736888 28
2.678374233622509 1.515968391460580 0.487449793065359 28
2.685108967110992 1.508045563072702 0.487762661995440 29
2.683453894595691 1.494818404090742 0.486511186275118 30
2.685197358322744 1.483531758296785 0.485885448414957 28
2.704218394137766 1.481743448675731 0.488388399855601 29
2.681603517664400 1.457204150305920 0.483382496974313 27
2.679969982234993 1.443618568966177 0.482131021253991 25
2.707391161953142 1.446826973894553 0.486198317345038 29
2.686491732931141 1.423024536315683 0.481505283393831 26
2.687698550523459 1.412270287233087 0.480879545533670 26
2.682344599378123 1.396935294195986 0.479002331953187 26
2.685207217910632 1.387126019823467 0.478689463023106 25
2.700823344097106 1.382676004463196 0.480566676603589 26
2.689541697215100 1.365663054457463 0.477750856232865 26
2.708407845910607 1.363372003682400 0.480253807673509 26
2.686637531401623 1.340679203001538 0.475560773722302 25
2.694842192779554 1.333044621234418 0.476186511582463 26
2.692384411892298 1.320151086167789 0.474935035862141 25
2.712966173670300 1.318516082529712 0.477750856232865 26
2.699528436193016 1.300936593705475 0.474622166932060 26
2.695365230151443 1.286778369754790 0.473057822281658 24
2.707429837089961 1.279796220913273 0.474309298001980 26
2.695781109591594 1.262796147333489 0.471493477631256 26
2.699516029618525 1.254792057029300 0.471493477631256 26
2.704096940287325 1.244889407971615 0.471493477631256 25
2.706413187177364 1.235095338124330 0.471180608701175 26
2.701708291563156 1.221571476352444 0.469616264050773 26
2.705955912034420 1.212133312249510 0.469616264050773 26
2.710170561286843 1.202680378684693 0.469616264050773 27
2.707118737765145 1.190033009917380 0.468364788330451 27
2.702405923476121 1.176161370961180 0.466800443680049 28
2.702663619987158 1.165628800627221 0.466174705819888 30
2.706917709842724 1.155715213966472 0.466174705819888 29
2.710735316049163 1.146732396846617 0.466174705819888 28
2.718564280950764 1.138315244613179 0.466800443680049 28
2.707727210556425 1.123238706559083 0.464297492239405 28
2.704516395168504 1.110306018560004 0.463046016519083 28
2.717332700612001 1.105052128398770 0.464610361169486 30
2.712011297139010 1.091871380143373 0.463046016519083 28
2.712324726248244 1.080461968450253 0.462420278658922 28
2.710566700918278 1.068813747292901 0.461481671868681 27
2.706735850771898 1.056945221238722 0.460230196148359 30
2.715936473918022 1.049626793121211 0.461168802938601 28
2.712022575388671 1.037790731653833 0.459917327218279 29
2.721350517849409 1.029941341577223 0.460855934008520 30
2.711979679171999 1.015586459356267 0.458665851497957 30
2.702541941296626 1.001309606395562 0.456475768987394 30
2.718829677638334 0.997103214648658 0.458665851497957 28
2.715037698043655 0.984438107264123 0.457414375777635 28
2.722005871506179 0.976763681646980 0.458040113637796 30
2.706782717418258 0.960649216256131 0.454911424336991 29
2.713847330585202 0.952503312399982 0.455537162197152 29
2.717155653933994 0.943024414398639 0.455537162197152 31
2.716694014008517 0.932251698983694 0.454911424336991 30
2.716351109333422 0.921019633821864 0.454285686476830 30
2.708153234730122 0.908238201614736 0.452408472896348 28
2.711463904007735 0.898306223352999 0.452408472896348 30
2.714117293215339 0.890257205711380 0.452408472896348 28
2.713603565097734 0.879085918333407 0.451782735036187 30
2.720570240372457 0.870337946346903 0.452408472896348 30
2.708672803305486 0.855600763438690 0.449905521455704 30
2.711495184479881 0.846613776350281 0.449905521455704 28
2.714433898699883 0.837143733986360 0.449905521455704 14
nan nan nan 0
1.704478231733698 0.512340921180234 0.281894906002496 1
1.687143986032205 0.501356726115438 0.278766216701691 3
1.664242367147750 0.488235441570765 0.274698920610645 3
1.658346799877518 0.480225349413116 0.273447444890324 3
1.663894621143760 0.475228976626936 0.274073182750484 5
1.663642037642268 0.468882139952500 0.273760313820404 10
1.669074934513964 0.464130539417907 0.274386051680565 23
1.678224504231767 0.460684780391503 0.275637527400887 27
1.643672290414974 0.444728094356571 0.269693017729358 41
1.648955050032020 0.440294234972970 0.270318755589519 40
1.663853877709583 0.438056168531079 0.272508838100082 42
1.659561564022076 0.431046429850568 0.271570231309841 41
1.645746813551297 0.421331490147062 0.269067279869197 38
1.643449132737996 0.414330890263496 0.268441542009036 26
1.654542687348154 0.410683962326265 0.270005886659438 24
1.640475246123549 0.401725212683011 0.267502935218795 16
1.659220167287661 0.399875239096445 0.270318755589519 16
1.643307905863409 0.389976032822719 0.267502935218795 17
1.652420827199944 0.385746647991425 0.268754410939117 17
1.657541193514932 0.381150268573926 0.269380148799278 20
1.674341001991072 0.378557510631427 0.271883100239921 25
1.660161709642819 0.369569253684221 0.269380148799278 39
1.653722972492937 0.362081958846397 0.268128673078956 48
1.662763764097178 0.357680024936063 0.269380148799278 49
1.664002170256554 0.351873717140621 0.269380148799278 48
1.669088408626469 0.346866985108140 0.270005886659438 46
1.648999136743216 0.336691707396490 0.266564328428553 41
1.649990861253380 0.331797553622330 0.266564328428553 24
1.674452157374416 0.330335803449606 0.270318755589519 17
1.669889777792384 0.322779282881323 0.269380148799278 11
1.671006314213000 0.316948313283355 0.269380148799278 8
1.662338245278669 0.309596920740382 0.267815804148875 6
1.682894774173744 0.307047651884848 0.270944493449680 3
1.689737112491466 0.302509620463437 0.271883100239921 3
1.721913411619708 0.302070658678925 0.276889003121209 2
1.742425789076856 0.299403509482683 0.280017692422013 1
1.743460286906773 0.293319484367481 0.280017692422013 1
4.227546724280911 0.696833900393654 0.678612709344522 18
4.228122111761748 0.681020362783026 0.678299840414441 51
4.243899258230283 0.669889954238738 0.680489922925004 85
4.256087691217916 0.655834995060138 0.682054267575407 92
4.221236984218084 0.635388006132138 0.676109757903878 72
4.229400754179061 0.620772722028450 0.677048364694119 87
4.223614547606056 0.605622587181021 0.675796888973797 81
4.229718679387258 0.590684622408240 0.676422626833958 78
4.223825056290779 0.575588230034355 0.675171151113636 78
4.214059265303055 0.559281487441327 0.673293937533154 81
4.216080829406760 0.543832431535591 0.673293937533154 78
4.221873504155126 0.529603989817562 0.673919675393315 81
4.223606520980218 0.515600840816951 0.673919675393315 81
4.223418928408971 0.500622038511316 0.673606806463234 78
4.211319001067218 0.485031807252750 0.671416723952671 78
4.220921321772320 0.470468584027146 0.672668199672993 81
4.220653316163556 0.454783348396973 0.672355330742912 78
4.226144562244831 0.440457285454917 0.672981068603073 83
4.225616531423531 0.426242211082919 0.672668199672993 81
4.217319822239376 0.409796452791688 0.671103855022590 83
4.210788611222102 0.395070957608029 0.669852379302269 78
4.216076755309645 0.380725475564775 0.670478117162430 85
4.223155791472641 0.367992858283621 0.671416723952671 81
4.228351610026193 0.353578267869293 0.672042461812832 81
4.221742752409572 0.337448641209734 0.670790986092510 81
4.232799507267624 0.322723783592951 0.672355330742912 22
4.466266897072725 0.326414750371947 0.709273864492407 15
3.336287835260457 0.231540618125698 0.529687098626222 3
3.356748100887839 0.221778094774011 0.532815787927026 1
nan nan nan 0
nan nan nan 0
3.370785635431341 0.186095658489455 0.534693001507509 1
3.343735760587906 0.174067397359146 0.530312836486383 1
3.371945724839571 0.163735832593347 0.534693001507509 1
4.229007443761613 0.189079705455651 0.670478117162430 2
4.229641690542498 0.174316562698822 0.670478117162430 2
4.214404808309364 0.159691232313710 0.667975165721786 2
4.214936559139137 0.144979241311625 0.667975165721786 2
nan nan nan 0
4.215845981929783 0.115550139011038 0.667975165721786 2
4.224122890852360 0.101022301306315 0.669226641442108 2
4.224449789689198 0.086276745296852 0.669226641442108 2
3.276660720645920 0.056622267941539 0.519049555003486 1
4.264443061180881 0.058057872952953 0.675484020043717 2
4.217213129241905 0.042691925801694 0.667975165721786 2
4.264744456835026 0.028285271087603 0.675484020043717 2
nan nan nan 0
4.233231969887507 -0.001477676777521 0.670478117162430 2
nan nan nan 0
4.264718149388433 -0.032006951471398 0.675484020043717 2
nan nan nan 0
4.264390772355876 -0.061779278982889 0.675484020043717 2
3.205538244233741 -0.056512522319742 0.507786273520589 1
nan nan nan 0
4.263546905744917 -0.104943418938618 0.675484020043717 2
nan nan nan 0
4.262710368790140 -0.134705792283099 0.675484020043717 2
4.262214187935361 -0.149584607590822 0.675484020043717 2
nan nan nan 0
nan nan nan 0
nan nan nan 0
3.075882911626338 -0.151512044168772 0.487762661995440 1
4.258954420701603 -0.223947719461160 0.675484020043717 2
3.145751497222480 -0.176976341520782 0.499025943478336 1
4.257242856159218 -0.254418164341488 0.675484020043717 2
nan nan nan 0
3.120146430874787 -0.207239897278530 0.495271516317371 1
3.095719413063496 -0.217016742785011 0.491517089156405 1
3.102823209008759 -0.228401565462936 0.492768564876727 1
3.054738356667084 -0.235585622691953 0.485259710554796 2
3.016486663485743 -0.243230646126026 0.479315200883267 5
nan nan nan 0
nan nan nan 0
3.039348010824198 -0.277137205582125 0.483382496974313 36
3.024695865342206 -0.285385322755593 0.481192414463750 33
3.023629559548023 -0.296469470418079 0.481192414463750 25
3.038298380207837 -0.308619095049301 0.483695365904394 21
nan nan nan 0
3.124441807215669 -0.339422999472795 0.497774467758015 1
3.346961909963102 -0.376013446331354 0.533441525787187 1
nan nan nan 0
nan nan nan 0
4.627040724333322 -0.568948927124339 0.738370674989890 82
4.617187504419070 -0.584105157574033 0.737119199269568 85
4.605326069162276 -0.598944782547210 0.735554854619166 80
4.609081239796888 -0.615801515306336 0.736493461409407 82
4.614842226814300 -0.632154751110108 0.737744937129729 85
4.616406475701202 -0.649615268769900 0.738370674989890 85
4.618021033880734 -0.666289751106734 0.738996412850051 82
4.601988168330340 -0.680383222984827 0.736806330339487 80
4.609472464456087 -0.697117167867858 0.738370674989890 82
4.612742652950917 -0.714914682686742 0.739309281780131 80
4.616199717554333 -0.731134208691126 0.740247888570372 82
4.615569425384843 -0.747559124018289 0.740560757500453 78
4.609034134157493 -0.763020652984577 0.739935019640292 91
4.612185755960232 -0.780092829205099 0.740873626430533 85
4.619445611040486 -0.796256306559659 0.742437971080936 91
4.620387010080735 -0.813867434863875 0.743063708941097 89
4.619317159620488 -0.831146342293730 0.743376577871177 82
4.612354105169157 -0.847357538582247 0.742750840011016 93
4.609518806022844 -0.862647996916858 0.742750840011016 85
4.619908340687305 -0.882130345017435 0.744940922521580 89
4.622931700328862 -0.897769581712409 0.745879529311821 85
4.621547914920873 -0.915091129285241 0.746192398241901 91
4.610742060798561 -0.928851264054554 0.744940922521580 91
4.617147171607403 -0.946924432994656 0.746505267171982 85
4.617512771205027 -0.964648676502556 0.747131005032143 82
4.614117387469240 -0.980760927022326 0.747131005032143 85
4.622075876907063 -1.000172623382857 0.749008218612625 82
4.612768798914400 -1.015027026058773 0.748069611822384 80
4.613412996416251 -1.030374591040253 0.748695349682545 80
4.611531784644075 -1.047714315864863 0.749008218612625 85
4.609771232059735 -1.064249545848289 0.749321087542706 80
4.621413704068790 -1.083942798422476 0.751824038983350 80
4.613950452804120 -1.098347090613118 0.751198301123189 80
4.606053840270579 -1.114321698525801 0.750572563263028 78
4.610007043589937 -1.131473230994858 0.751824038983350 78
4.617530076790445 -1.150423579304314 0.753701252563832 78
4.613689745977136 -1.165729535419407 0.753701252563832 78
4.605765506438810 -1.180846039436241 0.753075514703671 78
4.605648056965880 -1.197106677472867 0.753701252563832 78
4.610779588405717 -1.216498855242306 0.755265597214235 82
4.610321615911841 -1.233607266278646 0.755891335074396 82
4.615301059845136 -1.253084602189737 0.757455679724798 78
4.603722705421590 -1.265483486036733 0.756204204004476 78
4.599053554264520 -1.282348473252435 0.756204204004476 80
4.605954887451550 -1.301617508745774 0.758081417584959 80
4.610648028191385 -1.321211215533972 0.759645762235361 85
4.613829919057956 -1.338695212241034 0.760897237955683 82
4.603443288616400 -1.353121120746322 0.759958631165442 89
4.600585213653330 -1.369745574205972 0.760271500095522 85
4.603340944165325 -1.388077414655134 0.761522975815844 85
4.615224932342847 -1.410135110024936 0.764338796186568 91
4.612161661218313 -1.426820465868876 0.764651665116649 85
4.605771126677217 -1.440713203004175 0.764338796186568 89
4.600459712742488 -1.457584521074980 0.764338796186568 91
4.612272989556824 -1.479063103487945 0.767154616557292 93
4.616476535440172 -1.498202775464681 0.768718961207694 91
4.618990434767640 -1.515967311580933 0.769970436928016 89
4.607779296692885 -1.531017961097574 0.769031830137775 93
4.604549452302015 -1.546918574237641 0.769344699067855 89
4.612213899868792 -1.567431345441280 0.771534781578419 93
4.616054903371821 -1.586732135579665 0.773099126228821 89
4.623548924679636 -1.607376117747817 0.775289208739384 85
4.606728586652459 -1.619574516551603 0.773411995158901 85
4.608206204870246 -1.639096116852432 0.774663470879223 82
4.617616981065317 -1.659713760922577 0.777166422319867 82
4.620785223457951 -1.680001878346137 0.778730766970269 80
4.621047606855110 -1.696552587690271 0.779669373760511 82
4.609242856305648 -1.711415403743128 0.778730766970269 78
4.607241365016944 -1.728078251369222 0.779356504830430 78
4.613805694797496 -1.749856549111912 0.781546587340993 76
4.611666926642661 -1.766560106930885 0.782172325201154 74
4.612841141068654 -1.785499301432006 0.783423800921476 76
4.608105538511730 -1.803114022536430 0.783736669851557 74
4.603620461131432 -1.819914550353485 0.784049538781637 76
4.613750164965480 -1.842566775410604 0.786865359152361 78
4.614617996385610 -1.861616663554647 0.788116834872683 78
4.615737135477596 -1.879889455900166 0.789368310593005 80
4.603335831464908 -1.894538947847937 0.788429703802764 76
4.603990951961086 -1.913628738540337 0.789681179523085 76
4.613675939800701 -1.936568828537586 0.792496999893810 78
4.614845338597767 -1.954134554804940 0.793748475614131 78
4.618549168477543 -1.975697178478775 0.795625689194614 78
4.608692088065113 -1.988631769530055 0.794999951334453 80
4.612588322479108 -2.009440656343577 0.796877164914936 78
4.616040882145391 -2.031106599171200 0.798754378495419 78
4.623365249371425 -2.053622278348292 0.801257329936062 78
4.623740282817415 -2.072174079052118 0.802508805656384 78
4.619713637796271 -2.090735949317756 0.803134543516545 78
4.615981063970660 -2.108490509142865 0.803760281376706 78
4.627953640567799 -2.134495324635163 0.807201839607591 76
4.626598616306918 -2.151522777588661 0.808140446397833 78
4.627622352926546 -2.172663229782313 0.809704791048235 76
4.620392097782774 -2.187997032470574 0.809704791048235 76
4.621252669046473 -2.209176805575696 0.811269135698637 78
4.621407612915797 -2.227114260944705 0.812520611418959 74
4.618934918462831 -2.245823750723828 0.813459218209201 76
4.623085887579196 -2.268829895408962 0.815649300719764 72
4.627530036386252 -2.291088934454638 0.817839383230327 80
4.626573317854032 -2.310758641508158 0.819090858950649 85
4.620243203198304 -2.327783124355672 0.819403727880729 72
4.637154942384762 -2.355616721394218 0.823783892901856 80
4.619700643838091 -2.368091420489316 0.822219548251453 74
4.614082600744726 -2.387627983717037 0.822845286111614 74
4.612725010684680 -2.407375438717886 0.824096761831936 76
4.618701975255852 -2.430016662038634 0.826599713272580 74
4.620233302603444 -2.452485720893433 0.828476926853063 74
4.626008925090130 -2.475249051480972 0.830979878293706 76
4.613863597221278 -2.489505715538970 0.830354140433545 74
4.619903837260511 -2.511536103459489 0.832857091874189 74
4.624966371313946 -2.535243511430046 0.835360043314833 72
4.628190647879600 -2.558061202084438 0.837550125825396 70
4.637762737992750 -2.585588090441743 0.840991684056281 72
4.624811290883414 -2.600632538478129 0.840365946196120 72
4.622121475256989 -2.621463938927041 0.841617421916442 70
4.629761357038363 -2.643983032508848 0.844433242287166 74
4.635445415365080 -2.669807264016672 0.847249062657890 72
4.636817414136782 -2.691113679308148 0.849126276238373 72
4.632037350546119 -2.711083856649815 0.850064883028615 74
4.631529188830217 -2.731446692062022 0.851629227679017 76
4.635550474402408 -2.755672335358453 0.854132179119661 80
4.635099999166321 -2.779546710767336 0.856009392700143 100
4.600010947396312 -2.780381941597331 0.851316358748936 48
4.573407760026450 -2.786144852287116 0.848187669448132 46
4.535036906201157 -2.784520835043263 0.842868897636764 46
4.504911086847215 -2.784462600367509 0.838801601545718 46
4.481263325994165 -2.792597280477825 0.836298650105074 50
3.813645749259959 -2.396007196935958 0.713341160583453 31
3.790238130538516 -2.399794294252629 0.710525340212729 49
3.763520175209386 -2.401322222453739 0.707083781981844 45
3.739741290761762 -2.405482429039895 0.704267961611119 47
3.709372957837687 -2.401538117925030 0.699887796589993 47
3.686077526396916 -2.404757603036398 0.697071976219269 45
3.647111787092572 -2.399351136229282 0.691440335477820 42
3.618956544661548 -2.398970116394486 0.687685908316855 42
3.597838585471479 -2.402182721713517 0.685182956876211 42
3.579177075621322 -2.408735917971473 0.683305743295728 42
3.547061992564570 -2.403347667654423 0.678612709344522 31
2.892245656608535 -1.975176078493926 0.554716613032659 12
3.423994045006796 -2.355886496891836 0.658276228889291 11
2.861805076567774 -1.984565057165953 0.551587923731854 1
2.871403455458527 -2.005354750463471 0.554716613032659 1
2.854342013176350 -2.009043620788196 0.552839399452176 3
2.812209302537475 -1.993366643591939 0.545956282990406 3
2.802018853567573 -2.000875043774552 0.545330545130245 3
2.795017425406602 -2.010643724835757 0.545330545130245 3
2.749593204994017 -1.992568452010324 0.537821690808314 3
2.741025616896433 -2.000989463720537 0.537508821878233 7
2.718110166975140 -1.998842413521613 0.534380132577429 12
2.708291801878528 -2.005493894779428 0.533754394717268 16
2.696173536526594 -2.011862718246298 0.532815787927026 19
2.671764769951003 -2.008206149523071 0.529374229696141 21
2.664738545007828 -2.017520114319353 0.529374229696141 21
2.634469428310308 -2.008381555912628 0.524681195744934 19
2.614558312074991 -2.008397050867897 0.522178244304291 20
2.609798608373516 -2.017809272533648 0.522491113234371 20
2.594946607339999 -2.020838293092075 0.520926768583969 20
2.584414299920152 -2.027896832631279 0.520301030723808 22
2.558722255984189 -2.022207710171948 0.516546603562842 20
2.544273648554353 -2.024531766675289 0.514982258912440 23
2.529130215262707 -2.027665258261342 0.513417914262038 22
2.516243901570912 -2.031078079995619 0.512166438541716 22
2.499587433091940 -2.032808788651139 0.510289224961233 20
2.475666298073199 -2.027752899964526 0.506847666730348 20
2.460599628087131 -2.030526590489601 0.505283322079946 18
2.448129873840093 -2.033198470063116 0.504031846359624 20
2.428541403253686 -2.032016589559241 0.501528894918980 20
2.417257283063972 -2.036240798851003 0.500590288128739 18
2.401096744168604 -2.036998697696578 0.498713074548256 18
2.377096599680769 -2.031667758495670 0.495271516317371 16
2.372984575962415 -2.042530321817442 0.495897254177532 16
2.363569887429206 -2.047388461519353 0.495271516317371 18
2.347477339004193 -2.047835004312744 0.493394302736888 18
2.325830994426655 -2.042573331277597 0.490265613436084 18
2.306493209435323 -2.040612814914154 0.487762661995440 18
2.297881197824511 -2.047337466058082 0.487449793065359 19
2.289250361250593 -2.054026874375807 0.487136924135279 18
2.276562724026262 -2.056310651286114 0.485885448414957 18
2.252939127299530 -2.050016873468824 0.482443890184072 17
2.238845472151032 -2.050805162495002 0.480879545533670 16
2.225865318636452 -2.053250227794599 0.479628069813348 16
2.212895445773152 -2.055629728404511 0.478376594093026 16
2.202821315068451 -2.060642708780167 0.477750856232865 16
2.178360568205200 -2.052065452200734 0.473996429071900 16
2.163660302622413 -2.053236961596262 0.472432084421497 15
2.152554515113470 -2.056307117143692 0.471493477631256 16
2.140733234883059 -2.060073622615199 0.470554870841014 15
2.129633584542236 -2.063037895950722 0.469616264050773 15
2.107920240950021 -2.057033203523243 0.466487574749968 16
2.099678103033681 -2.062627694785132 0.466174705819888 15
2.082275414539792 -2.060583259015671 0.463984623309325 15
2.076830306492692 -2.068871121344602 0.464297492239405 15
2.064017520094132 -2.070512029264810 0.463046016519083 15
2.044270078845969 -2.065069493089358 0.460230196148359 15
2.031509963899041 -2.066557959693645 0.458978720428037 15
2.027043713770011 -2.076463706494071 0.459604458288198 16
2.015658340920040 -2.079271768997292 0.458665851497957 16
1.999160558529283 -2.075984328830122 0.456475768987394 16
1.984713256422965 -2.076158203458165 0.454911424336991 17
1.969293962444057 -2.074477595291309 0.453034210756509 16
1.962040686677474 -2.081339075620888 0.453034210756509 17
1.951077250202716 -2.083508370181360 0.452095603966267 15
1.939392907266680 -2.086304990921223 0.451156997176026 16
1.919062532492473 -2.078212123852144 0.448028307875221 16
1.906456313053490 -2.079074502914248 0.446776832154899 16
1.903177263354264 -2.090098368494061 0.447715438945141 16
1.889245580477643 -2.089402866300633 0.446151094294738 16
1.875342023441602 -2.088635659265312 0.444586749644336 16
1.857159491335784 -2.083697804171039 0.442083798203692 15
1.847620608031243 -2.086886884748665 0.441458060343532 15
1.837351353329346 -2.090677131427218 0.440832322483371 16
1.824277526420515 -2.088999557263616 0.439267977832968 15
1.816608706970951 -2.095671837241667 0.439267977832968 15
1.796395753068464 -2.087028705925303 0.436139288532164 15
1.786168011077392 -2.090595078771808 0.435513550672003 15
1.779225527009928 -2.096506730544243 0.435513550672003 15
1.770623599011387 -2.101194050352163 0.435200681741922 15
1.760743008669860 -2.104331883418197 0.434574943881761 15
1.740763417517569 -2.095271069251093 0.431446254580957 16
1.729667873056360 -2.096763270879761 0.430507647790715 17
1.719834867006950 -2.099731786143565 0.429881909930554 17
1.712862449248135 -2.105423419046663 0.429881909930554 17
1.705134181689432 -2.111687232037162 0.429881909930554 17
1.690706818290725 -2.108084067224915 0.428004696350072 17
1.675954870191379 -2.104701081272649 0.426127482769589 17
1.666515456898344 -2.107148427851711 0.425501744909428 17
1.658781178170092 -2.113242359036861 0.425501744909428 17
1.648965958582286 -2.115903505850556 0.424876007049267 17
1.629481886392393 -2.106023262428758 0.421747317748462 17
1.622120565949626 -2.111698385067159 0.421747317748462 17
1.611145846621038 -2.112635579009654 0.420808710958221 16
1.602938573323223 -2.116392018740752 0.420495842028141 17
1.591610192973073 -2.117515695333508 0.419557235237899 16
1.573944744879239 -2.108535162903748 0.416741414867175 17
1.562678514289596 -2.109527882198526 0.415802808076934 17
1.556845035781863 -2.116289507111530 0.416115677007014 17
1.550242710251476 -2.123576889458179 0.416428545937095 16
1.540873305547292 -2.125507346740326 0.415802808076934 16
1.520383493593532 -2.113501415195583 0.412361249846049 17
1.509921822182919 -2.113709417038394 0.411422643055807 16
1.505962235588630 -2.123801295932909 0.412361249846049 17
1.491347811291212 -2.119613304762933 0.410484036265566 17
1.487333049554126 -2.129664717387457 0.411422643055807 17
1.469761545851387 -2.120232407730752 0.408606822685083 17
1.457872727639340 -2.118840421387286 0.407355346964761 17
1.451952698914173 -2.125294329231828 0.407668215894842 16
1.445261682820528 -2.132236877693437 0.407981084824922 17
1.435977181867609 -2.133740179697326 0.407355346964761 18
1.419742899809102 -2.125598418394224 0.404852395524118 17
1.409411193648725 -2.125355908662904 0.403913788733876 17
1.400526228839717 -2.128857106492949 0.403600919803796 17
1.392750837279973 -2.131592797247733 0.403288050873715 17
1.386376415150208 -2.138098859512532 0.403600919803796 18
1.371422182938774 -2.131296914051863 0.401410837293232 18
1.356532420898569 -2.124416762314265 0.399220754782669 18
1.346993967844549 -2.125801792988929 0.398595016922508 17
1.339193467279384 -2.130724494081946 0.398595016922508 17
1.337348468803869 -2.143533428321917 0.400159361572911 18
1.314930453335923 -2.124903934408944 0.395779196551784 18
1.307876788027248 -2.129252717484788 0.395779196551784 18
1.300063901934049 -2.134032023767414 0.395779196551784 18
1.291584996023164 -2.136866533446871 0.395466327621704 18
1.284759933829304 -2.143280368968033 0.395779196551784 18
1.269565524439460 -2.133947790876347 0.393276245111140 19
1.257088600050406 -2.129860567891886 0.391711900460738 19
1.250644460711301 -2.135940311215698 0.392024769390819 19
1.243181018287086 -2.140292862193107 0.392024769390819 19
1.239271687913205 -2.151682011489625 0.393276245111140 20
1.219014468805424 -2.133697288475032 0.389208949020094 19
1.215228822246105 -2.142671182024337 0.390147555810336 19
1.204462724447800 -2.141945363313093 0.389208949020094 19
1.198315657649740 -2.147652750789164 0.389521817950175 19
1.189855174765855 -2.150094197258714 0.389208949020094 19
1.175315755572729 -2.142317733593265 0.387018866509531 19
1.166512094177026 -2.144875755276937 0.386705997579451 19
1.160706346486846 -2.150268163320761 0.387018866509531 19
1.145735437240357 -2.140374224034289 0.384515915068887 15
1.146215624728004 -2.160263842300456 0.387331735439612 13
1.226045499809803 -2.330329194934159 0.417054283797256 8
nan nan nan 0
1.265533615704012 -2.445639218797775 0.436139288532164 41
1.242561610903741 -2.421920858922833 0.431133385650876 30
1.235467013061020 -2.429980518214717 0.431759123511037 35
1.218039893720679 -2.414449601995743 0.428317565280152 36
1.207415793125299 -2.415363907006510 0.427691827419991 35
1.197223070697467 -2.416023897675229 0.427066089559830 36
1.191842232138363 -2.427488446309050 0.428317565280152 36
1.180750109730859 -2.424117103920237 0.427066089559830 36
1.164551842012622 -2.412213654790550 0.424250269189106 36
1.155702814925169 -2.416465748291710 0.424250269189106 36
1.148952859381013 -2.424055219163554 0.424876007049267 36
1.140908085264337 -2.427851955868054 0.424876007049267 36
1.129924671356981 -2.426447468568079 0.423937400259026 37
1.114826810535965 -2.416027770506654 0.421434448818382 35
1.106785195275524 -2.421894244489404 0.421747317748462 38
1.095487439776189 -2.418353678875292 0.420495842028141 38
1.087847944881093 -2.423965114765405 0.420808710958221 37
1.077395321212311 -2.422144590534552 0.419870104167980 36
1.063733235768459 -2.415230329914701 0.417992890587497 36
1.052187708087622 -2.409508724424552 0.416428545937095 37
1.049259944563779 -2.425858201266228 0.418618628447658 38
1.038029032595426 -2.424239907063091 0.417680021657416 38
1.022619674585096 -2.411481017060311 0.414864201286692 34
1.014617292647952 -2.414858886964308 0.414864201286692 36
1.005001085995629 -2.416737472293787 0.414551332356612 37
0.996558975107205 -2.420230857165207 0.414551332356612 37
0.986190851590079 -2.420208504749291 0.413925594496451 36
0.979322357639970 -2.425126432836961 0.414238463426531 36
0.965296589355349 -2.415858983128663 0.412048380915968 37
0.955826276564044 -2.415373167403060 0.411422643055807 36
0.947687198303608 -2.420699659673041 0.411735511985888 38
0.938940634953566 -2.421987178499087 0.411422643055807 37
0.931188191444750 -2.427094233910907 0.411735511985888 36
0.918782064898448 -2.421256518980917 0.410171167335485 37
0.906852833378364 -2.415202352402141 0.408606822685083 36
0.899104593772982 -2.420204870515239 0.408919691615163 37
0.892013918250885 -2.427036816952429 0.409545429475324 37
0.883709149234730 -2.427970932887874 0.409232560545244 36
0.868784959868045 -2.414465184427598 0.406416740174520 35
0.859026973805846 -2.413761032230548 0.405791002314359 36
0.853219414560723 -2.424198228629838 0.407042478034681 36
0.842577250229663 -2.419552280864401 0.405791002314359 35
0.834346282119960 -2.424492096764368 0.406103871244439 36
0.822482212241654 -2.416025624818558 0.404226657663957 36
0.812153503786559 -2.413265305412916 0.403288050873715 36
0.804971739409887 -2.419834322845691 0.403913788733876 36
0.797753995372434 -2.426382561405021 0.404539526594037 36
0.789279479460253 -2.429152460165072 0.404539526594037 36
0.775542608349212 -2.416981641401902 0.402036575153393 36
0.767347998872680 -2.417523342696881 0.401723706223313 36
0.760254333370826 -2.425974527951490 0.402662313013554 37
0.752365605008466 -2.430500565549768 0.402975181943635 36
0.742875107082314 -2.431352635253886 0.402662313013554 37
0.729669846568877 -2.416783129974508 0.399846492642830 38
0.720242980804646 -2.417548124055569 0.399533623712750 37
0.713337603645327 -2.423713256260135 0.400159361572911 37
0.704872919640474 -2.426188503085256 0.400159361572911 37
0.697368332010993 -2.430411364790777 0.400472230502991 38
0.686189425610423 -2.423327582227598 0.398907885852589 37
0.674755936666755 -2.418333683637080 0.397656410132267 37
0.666834506891946 -2.422578831192242 0.397969279062347 31
0.659125058359599 -2.422640612415134 0.397656410132267 36
0.651264405654206 -2.428856110295217 0.398282147992428 37
0.639834820602808 -2.421677597628481 0.396717803342025 39
0.627394234718217 -2.408603563225529 0.394214851901382 36
0.620808147936625 -2.414388981115565 0.394840589761543 35
0.611954800100848 -2.416648139740308 0.394840589761543 36
0.603515395613707 -2.418769537581865 0.394840589761543 36
0.591296411570791 -2.405515273537103 0.392337638320899 36
0.582805357987502 -2.403521520964290 0.391711900460738 36
0.574411951539144 -2.405541248236336 0.391711900460738 36
0.568331026961505 -2.421190837502108 0.393901982971301 37
0.558120012353006 -2.417483368462224 0.392963376181060 36
0.546139381541857 -2.399963477395865 0.389834686880255 36
0.536908155825179 -2.400021330227962 0.389521817950175 37
0.530221015935635 -2.407576028077144 0.390460424740416 36
0.520557681175874 -2.405641830670928 0.389834686880255 35
0.514644440266905 -2.414993315420297 0.391086162600577 36
0.502957168809375 -2.403328925726540 0.388896080090014 38
0.493790024177801 -2.399179111890845 0.387957473299773 36
0.487369625611076 -2.410569144698511 0.389521817950175 37
0.477798098105850 -2.406443031831643 0.388583211159933 35
0.471284807871779 -2.417790626701263 0.390147555810336 37
