# This PCD file was generated using the MATLAB® pcwrite function
# from Computer Vision Toolbox®.
# .PCD v.7 - Point Cloud Data file format
VERSION .7
FIELDS x y z intensity
SIZE 8 8 8 1
TYPE F F F U
COUNT 1 1 1 1
WIDTH 842
HEIGHT 1
VIEWPOINT 0 0 0 1 0 0 0
POINTS 842
DATA ascii
4.157063093625681 5.194434431217026 1.053742556510995 49
4.161871701752808 5.165238662460316 1.050613867210191 49
4.153384865583647 5.116209952521774 1.043730750748420 49
4.150326419353796 5.077936717135938 1.038724847867133 49
4.157608848528592 5.048966740768670 1.035909027496409 45
4.159200017423870 5.016903038336268 1.032154600335443 47
4.166163150836745 4.987980180059941 1.029338779964719 49
4.154711686882059 4.940875551464173 1.022455663502949 50
4.154060830132653 4.905238516010064 1.018075498481823 52
4.166883054571699 4.883969135473560 1.016824022761501 49
4.163308211673048 4.845421841996612 1.011818119880213 49
4.162100437127742 4.809946851927826 1.007437954859087 49
4.161993734164813 4.776028839726183 1.003370658768041 45
4.164781577097163 4.747351516118053 1.000241969467236 50
4.165147574465745 4.712812928925353 0.996174673376190 54
4.168439905094970 4.683489343547564 0.993045984075386 56
4.167623077432190 4.649787418707163 0.988978687984340 50
4.161846268393361 4.612475820688582 0.983972785103052 56
4.158793562484687 4.575264721698615 0.979279751151845 56
4.161941068073091 4.548332522779101 0.976463930781121 48
4.164406285754694 4.519250246983370 0.973335241480317 48
4.169406685451769 4.493102330898600 0.970832290039673 50
4.164834400958239 4.456871700020056 0.966139256088466 52
4.160060228868632 4.420728000468188 0.961446222137259 50
4.164003982455802 4.392548529828800 0.958630401766535 52
4.160659507774428 4.363019634781320 0.954875974605569 52
4.162937956145799 4.333495203435174 0.951747285304765 52
4.158060603974889 4.299786454357642 0.947367120283638 56
4.162764988239449 4.273197790311660 0.944864168842994 54
4.165205903336910 4.245949680807349 0.942048348472270 48
4.173797665437212 4.223629586806361 0.940484003821868 52
4.173117008465629 4.196489419502211 0.937355314521063 34
2.601263105169003 2.597633589987281 0.582249078879739 7
2.616377970562829 2.593644813372670 0.583500554600061 18
2.635269647218090 2.594196670272321 0.585690637110624 36
2.629219361238987 2.569333680281670 0.582249078879739 28
2.636754381499625 2.558764658813304 0.581936209949659 45
2.629138780917277 2.535385021768803 0.578494651718774 39
2.629852126590462 2.517535724136295 0.576617438138291 39
2.631902002195649 2.501076126492064 0.575053093487889 37
2.630559598332994 2.482383566307220 0.572863010977325 35
2.631140585612332 2.467351019331599 0.571298666326923 16
nan nan nan 0
1.167703667097965 1.079414166939780 0.251859488714772 1
1.145270176345803 1.051286863827033 0.246227847973323 3
1.146013096357544 1.044621264614576 0.245602110113162 7
1.143794421120498 1.035312073572718 0.244350634392841 18
1.142993934663615 1.027351668193798 0.243412027602599 18
1.142329767811020 1.019210155842441 0.242473420812358 25
1.141268329014565 1.011485805537381 0.241534814022116 34
1.146451063239379 1.008600841685130 0.241847682952197 30
1.140864773928300 0.996994353764879 0.239970469371714 24
1.126604973721090 0.977273357146910 0.236216042210749 21
1.131336010706726 0.974821473436405 0.236528911140829 37
1.140906079893015 0.975804183475002 0.237780386861151 39
1.148311308478659 0.976253236045902 0.238718993651392 40
1.141145906512186 0.963319310636413 0.236528911140829 45
1.141974602979649 0.956194383473143 0.235903173280668 50
1.143786414295725 0.950939454943650 0.235590304350588 48
1.151337027158954 0.951115725917364 0.236528911140829 50
1.156177341124071 0.948343781064713 0.236841780070910 52
1.163910187694600 0.948247627260349 0.237780386861151 53
1.162769800685395 0.940249095626733 0.236841780070910 55
1.169125498129986 0.938657950240645 0.237467517931070 58
1.172394903119784 0.934571222040573 0.237467517931070 60
1.180133802823355 0.934356852133624 0.238406124721312 56
1.183550465151643 0.930025169624294 0.238406124721312 50
1.169657514202137 0.912522302173729 0.234964566490427 40
1.188452672005327 0.920530199368890 0.238093255791231 34
1.196195829677868 0.920197427583945 0.239031862581473 27
1.204110318836051 0.919613241478212 0.239970469371714 22
1.219905606246721 0.924952405287631 0.242473420812358 12
1.237493452145963 0.931164402270456 0.245289241183082 9
1.246903962156870 0.931785481785510 0.246540716903404 19
1.267764327939216 0.940152365802221 0.249982275134289 33
1.272629134889915 0.936892430264619 0.250295144064369 48
1.272864333130116 0.929891164089037 0.249669406204208 28
1.264748500110368 0.917545211862996 0.247479323693645 7
nan nan nan 0
2.668865159820624 1.908606913086799 0.519675292863647 33
2.675511181603031 1.899279207253171 0.519675292863647 34
2.659844927631597 1.873534598606128 0.515295127842521 28
2.672844276968441 1.868766191214071 0.516546603562842 34
2.655329761461514 1.842067800373419 0.511853569611635 28
2.676386444628242 1.842870320458112 0.514669389982360 35
2.662278969059258 1.821535778311803 0.510914962821394 26
2.682012363992777 1.820641569531109 0.513417914262038 31
2.677198308568608 1.803074962568133 0.511227831751475 30
2.675264533753906 1.788230075900322 0.509663487101072 28
2.679223498412164 1.778724091399483 0.509350618170992 30
2.670877479022352 1.759113410405551 0.506534797800268 26
2.690229585503365 1.758425815077264 0.509037749240911 31
2.666520686446155 1.729674454537661 0.503406108499463 27
2.674203127403539 1.721425230778982 0.503718977429543 28
2.686854602041493 1.716333647323291 0.504970453149865 30
2.684487256904346 1.701656386419894 0.503406108499463 28
2.685689254013351 1.688651426613351 0.502467501709222 30
2.679543920994202 1.672414685209068 0.500277419198658 32
2.677257706719133 1.657383613134761 0.498713074548256 31
2.679373021858011 1.646428016880918 0.498087336688095 28
2.688763090254213 1.638652590929889 0.498713074548256 28
2.688827721097333 1.627129394211397 0.497774467758015 28
2.687998345031326 1.613197388879237 0.496522992037693 28
2.672967652992148 1.592144172971461 0.492768564876727 29
2.675107707413661 1.580794164827340 0.492142827016566 29
2.684292264582505 1.572976217166635 0.492768564876727 30
2.693182199277641 1.565582225090981 0.493394302736888 29
2.671250800406375 1.540383047236884 0.488388399855601 28
2.690328885927309 1.538895762151443 0.490891351296244 29
2.685375700238267 1.523646455607058 0.489014137715762 29
2.701272018633180 1.519604936347594 0.490891351296244 29
2.689047814934822 1.501010804277364 0.487762661995440 30
2.675260687460442 1.481090585540591 0.484321103764555 28
2.697471129969021 1.481721364570341 0.487449793065359 29
2.683800530175451 1.461433112681653 0.484008234834474 29
2.685156130307971 1.450647413222248 0.483382496974313 27
2.691944707887107 1.442198489349235 0.483695365904394 32
2.679517742864841 1.423525319413283 0.480566676603589 28
2.682722746881380 1.413242705121920 0.480253807673509 26
2.687639540465041 1.403869645210681 0.480253807673509 26
2.703292400913621 1.399458421499993 0.482131021253991 26
2.690345834233520 1.381463013694450 0.479002331953187 25
2.704193792931666 1.376072527015939 0.480566676603589 26
2.676763225115076 1.351544060836407 0.474935035862141 24
2.702898103240946 1.352330670171739 0.478689463023106 26
2.695214428967907 1.336743626225449 0.476499380512543 26
2.696549976708038 1.325113768453348 0.475873642652382 25
2.704480903699784 1.317895057238764 0.476499380512543 25
2.689498283556670 1.298996258471848 0.473057822281658 24
2.713615565847869 1.298982255906260 0.476499380512543 25
2.694931927126034 1.278495144208972 0.472432084421497 25
2.717254966977316 1.277484792447154 0.475560773722302 26
2.698419989216913 1.257147351087288 0.471493477631256 27
2.695617846374780 1.244408649095865 0.470242001910934 25
2.714532839114456 1.241091323976535 0.472744953351578 28
2.700641240748724 1.223928696169098 0.469616264050773 26
2.710303286018712 1.216921612645600 0.470554870841014 24
2.707104894955806 1.204714659591436 0.469303395120693 27
2.695233198543832 1.187615825118155 0.466487574749968 27
2.706397853504663 1.181833676627344 0.467739050470290 26
2.705067590649635 1.170026784222092 0.466800443680049 29
2.709135266102367 1.160577208004951 0.466800443680049 28
2.705896017571104 1.148027395371937 0.465548967959727 29
2.702602253585998 1.135514375783983 0.464297492239405 30
2.714041780206156 1.128635181857732 0.465548967959727 30
2.717769546619473 1.119628889364426 0.465548967959727 29
2.714538122561901 1.106677288037625 0.464297492239405 29
2.699876406345679 1.090272775801597 0.461168802938601 29
2.703854321284473 1.080369910941369 0.461168802938601 30
2.714769233020321 1.074305123012667 0.462420278658922 29
2.720527960985128 1.065067907515985 0.462733147589003 30
2.718519449022549 1.053898385696930 0.461794540798762 28
2.700050120399368 1.035911483491728 0.458040113637796 28
2.703649676655949 1.026480238590525 0.458040113637796 29
2.707216289794439 1.017036486351552 0.458040113637796 29
2.714453126625030 1.008956817720785 0.458665851497957 28
2.717958505791347 0.999475461162565 0.458665851497957 29
2.706579849250947 0.984579569278189 0.456162900057313 28
2.699017369858412 0.970641927934732 0.454285686476830 28
2.709833697209644 0.963862659990768 0.455537162197152 30
2.705727900664009 0.951775731267933 0.454285686476830 28
2.716166631409845 0.945869295554656 0.455537162197152 28
2.708407966339240 0.932050931489939 0.453659948616670 30
2.707743889115536 0.921791210004578 0.453034210756509 28
2.714689443637494 0.913593933662147 0.453659948616670 30
2.717704104013064 0.904586675809272 0.453659948616670 29
2.724598033442971 0.896329220331998 0.454285686476830 30
2.705320605288248 0.879011949282880 0.450531259315865 28
2.714166932718245 0.870901154745457 0.451469866106106 30
2.715157110992152 0.861298569909335 0.451156997176026 29
2.722065865203996 0.852522014856183 0.451782735036187 30
2.719216859438831 0.841738227342547 0.450844128245945 27
2.714727068267159 0.829457287394938 0.449592652525624 27
2.708007388203048 0.817595634027097 0.448028307875221 19
2.712878983376374 0.808228810879450 0.448341176805302 14
nan nan nan 0
nan nan nan 0
4.227060342155692 1.211291666300917 0.696446238359108 92
4.233163623258047 1.197066616832318 0.696759107289188 94
4.218289360049889 1.176973966632724 0.693630417988384 83
4.224276609736159 1.162766459344604 0.693943286918464 85
4.226202984680553 1.148233937627020 0.693630417988384 85
4.215117833404495 1.128648960261207 0.691127466547740 83
4.215017711329699 1.113655716932487 0.690501728687579 83
4.218879415903764 1.098935774621510 0.690501728687579 83
4.224603031353832 1.084693698328876 0.690814597617660 85
4.226635152374727 1.068718228248090 0.690501728687579 83
4.212905614294121 1.050395342978777 0.687685908316855 81
4.210791443789421 1.034269578376798 0.686747301526613 81
4.215939739587603 1.021501069181051 0.687060170456694 78
4.229086953143385 1.009070770533919 0.688624515107096 81
4.232930321537831 0.992824843665364 0.688624515107096 83
4.219217345840533 0.973307465697439 0.685808694736372 81
4.216642889133618 0.957997759995064 0.684870087946131 83
4.223981560864188 0.943397713735561 0.685495825806292 81
4.223228164248197 0.928536932672830 0.684870087946131 83
4.232395567811290 0.914303118115293 0.685808694736372 81
4.219633194131823 0.898450314797616 0.683305743295728 85
4.219030714131263 0.882169962873106 0.682680005435568 85
4.222235690265779 0.866700516917091 0.682680005435568 85
4.223298911527426 0.851566435992264 0.682367136505487 85
4.226391691459995 0.836081551868732 0.682367136505487 83
4.223466964478297 0.820193854433569 0.681428529715246 81
4.204959273579102 0.801378296460904 0.677986971484361 78
4.229090028360174 0.790688744649033 0.681428529715246 85
4.237381762162564 0.778469583676446 0.682367136505487 85
4.234374062985448 0.761884147102586 0.681428529715246 81
4.221574657631662 0.743617824696678 0.678925578274602 85
4.224144648966346 0.728877248769283 0.678925578274602 85
4.234329321561463 0.716183197082723 0.680177053994924 87
4.223283467573032 0.698402762753537 0.677986971484361 83
4.223506809093672 0.684815335887452 0.677674102554280 76
4.231724537325066 0.670996446277510 0.678612709344522 85
4.224280618275829 0.654708156298820 0.677048364694119 87
4.218727781610223 0.638775758403081 0.675796888973797 81
4.224840093388617 0.624623578808153 0.676422626833958 78
4.219280352272096 0.608007586823177 0.675171151113636 78
4.221273379052200 0.594012605934510 0.675171151113636 81
4.211679589526876 0.576928339435519 0.673293937533154 78
4.215625810322320 0.562484575460245 0.673606806463234 78
4.225494977665830 0.548046068035442 0.674858282183556 83
4.223369530221965 0.533535647701173 0.674232544323395 78
4.231178752099874 0.518773827869568 0.675171151113636 85
4.228776560023374 0.505748248494825 0.674545413253476 85
4.228553981684814 0.490756253299652 0.674232544323395 85
4.224435208352255 0.474592924636408 0.673293937533154 78
4.222138539377057 0.459416638200740 0.672668199672993 81
4.208077583355481 0.442286776337214 0.670165248232349 81
4.205665286962983 0.427195901297222 0.669539510372188 78
4.218781895701230 0.415142023047771 0.671416723952671 81
4.222241707951309 0.399862868596213 0.671729592882751 85
4.225646165466082 0.384563926808468 0.672042461812832 81
4.211219921786657 0.368434002770861 0.669539510372188 81
4.212418538251728 0.354467068489787 0.669539510372188 81
4.221565486014920 0.339659094188054 0.670790986092510 81
4.236455322495744 0.326721260096965 0.672981068603073 31
4.403053887069571 0.324112697656928 0.699262058729832 15
3.375536190055869 0.236632514570797 0.535944477227831 1
3.329037365785819 0.221698014528483 0.528435622905900 3
nan nan nan 0
nan nan nan 0
nan nan nan 0
3.347620134885228 0.175441337152530 0.530938574346544 1
nan nan nan 0
4.220913874104277 0.193147015970082 0.669226641442108 2
4.229487960135741 0.178007554539494 0.670478117162430 2
4.230111981785626 0.162504510583569 0.670478117162430 2
4.234523795840619 0.150092765426474 0.671103855022590 2
nan nan nan 0
4.223662672765053 0.118715327886931 0.669226641442108 2
4.216152220363779 0.103776840867971 0.667975165721786 2
4.224388527690403 0.089225946348774 0.669226641442108 2
3.213438523332284 0.056651801487505 0.509037749240911 1
4.272302187450205 0.061148081582399 0.676735495764039 2
nan nan nan 0
4.272630366523058 0.030574823597946 0.676735495764039 2
4.245055974466451 0.015559012445429 0.672355330742912 2
3.186282392640480 0.001112222418171 0.504657584219785 1
4.272716268441239 -0.014168915645777 0.676735495764039 2
4.233139125056721 -0.028075653515856 0.670478117162430 2
nan nan nan 0
4.272343835726839 -0.058165437330819 0.676735495764039 2
nan nan nan 0
4.271833653662901 -0.087990364279741 0.676735495764039 2
4.271482459775528 -0.103646826304579 0.676735495764039 2
nan nan nan 0
4.270654781287575 -0.133464631414404 0.676735495764039 2
nan nan nan 0
4.269647389106382 -0.162530740077263 0.676735495764039 2
4.269054038795505 -0.177433600585663 0.676735495764039 2
nan nan nan 0
nan nan nan 0
3.083338639409379 -0.160511706237372 0.489014137715762 1
3.082729624407290 -0.171811629163453 0.489014137715762 1
4.265263165999785 -0.252656275478164 0.676735495764039 2
nan nan nan 0
3.080796994531822 -0.203546190329877 0.489014137715762 1
3.099811438195333 -0.215128997230787 0.492142827016566 1
3.095061885884980 -0.226200958462430 0.491517089156405 1
3.062698730163656 -0.235124124417517 0.486511186275118 2
3.042168921068656 -0.244232711369395 0.483382496974313 3
nan nan nan 0
nan nan nan 0
3.031671387245597 -0.274303259369885 0.482131021253991 37
3.030695420205519 -0.284884096238942 0.482131021253991 35
3.027716475438799 -0.295269728295387 0.481818152323911 28
3.022736609046166 -0.305439441779602 0.481192414463750 19
nan nan nan 0
3.069570982352539 -0.332378033891200 0.489014137715762 1
3.362929049196538 -0.375430056600505 0.535944477227831 3
nan nan nan 0
nan nan nan 0
4.621455781705989 -0.565805976043981 0.737432068199648 89
4.611714372702024 -0.580141948035450 0.736180592479327 80
4.609557070173617 -0.597040829482550 0.736180592479327 80
4.617342669473135 -0.613624543513509 0.737744937129729 82
4.623001550796242 -0.630806597246973 0.738996412850051 85
4.605008490856706 -0.645552616320960 0.736493461409407 85
4.598816478185589 -0.661061036067884 0.735867723549246 85
4.616023788064847 -0.679988742417266 0.738996412850051 82
4.611668792712642 -0.695802822832849 0.738683543919970 80
4.621049758483503 -0.712898936785515 0.740560757500453 89
4.608649993239666 -0.728289462787145 0.738996412850051 85
4.606079711122812 -0.744372216419684 0.738996412850051 82
4.615147090235284 -0.762377600111957 0.740873626430533 85
4.618437236769640 -0.778663021250927 0.741812233220775 89
4.623338949102887 -0.796927403320350 0.743063708941097 89
4.612888639476251 -0.810886558302053 0.741812233220775 89
4.611974353814564 -0.827332395421768 0.742125102150855 85
4.620716990650854 -0.845559605525794 0.744002315731338 85
4.613853570701155 -0.860959053382184 0.743376577871177 85
4.628285381442659 -0.880381356419014 0.746192398241901 89
4.613392245770836 -0.895081500503708 0.744315184661418 91
4.614274595697801 -0.911140481731874 0.744940922521580 89
4.614777187687459 -0.928826067101178 0.745566660381740 89
4.613771733279705 -0.943715063428979 0.745879529311821 85
4.623818756268951 -0.963439653036642 0.748069611822384 80
4.610935970843745 -0.976720716921548 0.746505267171982 85
4.607325139693370 -0.993614081640331 0.746505267171982 85
4.611546779816063 -1.011383285914495 0.747756742892304 82
4.619556469656561 -1.030053860221477 0.749633956472786 82
4.619785799132329 -1.047046112258052 0.750259694332947 85
4.614177800513814 -1.062722439921953 0.749946825402867 80
4.608516674791932 -1.078372379777816 0.749633956472786 85
4.616255405380009 -1.097193234387187 0.751511170053269 82
4.614511912665916 -1.112958409946710 0.751824038983350 78
4.614238926318141 -1.130804343897994 0.752449776843511 78
4.606429671992642 -1.145950387840819 0.751824038983350 80
4.604316767901586 -1.162506418293990 0.752136907913430 85
4.611918396114682 -1.180708013086534 0.754014121493913 82
4.613295459302063 -1.199094401304288 0.754952728284154 78
4.618844714458163 -1.216902388065875 0.756517072934557 82
4.605026673740580 -1.230468086621546 0.754952728284154 78
4.604516747561460 -1.247568315935060 0.755578466144315 78
4.603943503836372 -1.264679965575813 0.756204204004476 80
4.607112815209586 -1.282862580787301 0.757455679724798 80
4.606181992408985 -1.300813598145244 0.758081417584959 80
4.603971970479912 -1.315820732933122 0.758394286515039 82
4.602912974496959 -1.333785871796905 0.759020024375200 85
4.600595644517226 -1.348795489610551 0.759332893305281 80
4.612663019051010 -1.370712665339177 0.762148713676005 85
4.609983873533195 -1.386570236523813 0.762461582606085 91
4.601091744398428 -1.402305567730831 0.761835844745924 91
4.605606471237173 -1.421270270894291 0.763400189396327 93
4.604388250972500 -1.438516324824392 0.764025927256488 85
4.612522858388616 -1.458749432637139 0.766216009767051 89
4.607402771549420 -1.474841254879784 0.766216009767051 89
4.605984998652734 -1.492132677171177 0.766841747627212 89
4.606379693393460 -1.510047498479104 0.767780354417453 85
4.608580304161691 -1.528605123741210 0.769031830137775 93
4.612309926506032 -1.548629935541655 0.770596174788177 91
4.618098696534845 -1.568532209846327 0.772473388368660 89
4.603254342954343 -1.581433748338949 0.770909043718258 85
4.607594306018565 -1.599125878537252 0.772473388368660 89
4.616612603775134 -1.621238951974800 0.774976339809304 89
4.618371281274003 -1.639988136146608 0.776227815529625 91
4.616336871974183 -1.657434294636527 0.776853553389787 80
4.616386099737610 -1.674754529389864 0.777792160180028 82
4.608657400362387 -1.690178368623408 0.777479291249947 78
4.615694934539342 -1.711061640879064 0.779669373760511 82
4.611242253383572 -1.728660921550943 0.779982242690591 80
4.616263473147343 -1.748945778783648 0.781859456271074 80
4.609822259872004 -1.765853482888113 0.781859456271074 78
4.613775393955718 -1.783083778816493 0.783423800921476 76
4.614568834273674 -1.802857505178160 0.784675276641798 76
4.612240062560856 -1.819599934582004 0.785301014501959 76
4.616549174646585 -1.840882439294515 0.787178228082442 76
4.608586765070683 -1.855443595311205 0.786865359152361 74
4.625870078886962 -1.881193118243831 0.790932655243407 82
4.610973827791991 -1.896741414669988 0.789681179523085 76
4.613445960366040 -1.916614434688857 0.791245524173488 78
4.616511119981872 -1.934916429972927 0.792809868823890 76
4.611548026937129 -1.951789209446023 0.793122737753971 78
4.600730753159665 -1.967125070271390 0.792496999893810 74
4.609811102202630 -1.991023636206323 0.795312820264534 82
4.615508040840658 -2.012629783392993 0.797502902775097 80
4.615686316864723 -2.031912219349588 0.798754378495419 78
4.613248357153821 -2.047200777841031 0.799380116355580 78
4.611121888283411 -2.066519023085894 0.800318723145821 82
4.620443160854512 -2.089123237706011 0.803134543516545 78
4.620310958986058 -2.108519332216236 0.804386019236867 78
4.621893771582782 -2.128766303555719 0.805950363887269 76
4.612643514444394 -2.144054112044092 0.805637494957189 78
4.621226871549863 -2.167692191848459 0.808453315327913 76
4.629318666750668 -2.192224229210278 0.811269135698637 78
4.619855820966192 -2.207518545080335 0.810956266768557 76
4.633084449937131 -2.234734652021942 0.814710693929522 76
4.618934918462831 -2.245823750723828 0.813459218209201 74
4.612445874028956 -2.263608192542658 0.813772087139281 74
4.635011595861286 -2.293785881684450 0.819090858950649 82
4.614202800961374 -2.304580142466692 0.816900776440086 74
4.619291036217569 -2.325282023218583 0.819090858950649 70
4.632282032531573 -2.352124317762361 0.822845286111614 85
4.609565678183451 -2.361880334068540 0.820342334670971 70
4.632880918646514 -2.394280974652399 0.825973975412419 85
4.620571235414269 -2.409418549200539 0.825348237552258 76
4.613880989489139 -2.426452132656463 0.825661106482339 74
4.612790358753959 -2.445439978323217 0.826912582202660 72
4.629924632800511 -2.476304907269783 0.831605616153867 82
4.612559407454391 -2.487762689708348 0.830041271503465 74
4.626406766641030 -2.516117510579250 0.834108567594511 76
4.627987880192361 -2.537950345153715 0.835985781174994 70
4.618654741866872 -2.554895721767113 0.835985781174994 72
4.628310832993984 -2.578201260303131 0.839114470475798 70
4.627894672628120 -2.599177952518505 0.840678815126201 68
4.632545179290283 -2.623103061330906 0.843181766566844 72
4.635369346703909 -2.646112895631102 0.845371849077408 72
4.626886616592249 -2.664877782362284 0.845684718007488 72
4.625628947181911 -2.686779088205449 0.847249062657890 72
4.632983415118975 -2.709466805457132 0.850064883028615 74
4.633230705798927 -2.732450162558739 0.851942096609097 74
4.639427719320297 -2.756881452032856 0.854757916979822 78
4.620819731459665 -2.768790663356258 0.853193572329419 100
4.598083933830274 -2.775931123962513 0.850690620888775 50
4.576067369876584 -2.785575391678117 0.848500538378212 48
4.544427335246802 -2.788102705063434 0.844433242287166 42
4.509465423925529 -2.788365466169031 0.839740208335959 46
4.472394309015705 -2.788154189420134 0.834734305454672 48
3.796919232815836 -2.385498393440625 0.710212471282648 31
3.790656915925815 -2.399132736356905 0.710525340212729 49
3.767270147347910 -2.402789810288501 0.707709519842004 49
3.740580734676356 -2.404176866542105 0.704267961611119 47
3.700245356820985 -2.397462128125473 0.698323451939591 45
3.679040781055979 -2.401082414748068 0.695820500498947 45
3.642579098449012 -2.395458384990615 0.690501728687579 45
3.628028012341959 -2.403161008015614 0.689250252967257 42
3.606052828817304 -2.407667157151219 0.686747301526613 45
3.568543249406957 -2.399770100185689 0.681115660785165 42
3.533979237405272 -2.394483314800004 0.676109757903878 33
2.915430878719597 -1.990263697146224 0.559096778053785 14
3.479742518561353 -2.393349612877321 0.668913772512027 13
2.894620507644664 -2.006573381510738 0.557845302333463 3
2.861337494506173 -1.999067868019117 0.552839399452176 3
2.825959496602753 -1.987591656343803 0.547207758710728 3
2.825101952635068 -2.002505287230183 0.548459234431049 3
2.814879525299381 -2.010058635484360 0.547833496570889 3
2.778632802053379 -1.999593183347078 0.542201855829440 3
2.759190388955602 -1.999523315717166 0.539698904388797 3
2.727914165073095 -1.992147842553578 0.535005870437590 6
2.713335968789587 -1.995331566191072 0.533441525787187 12
2.714290954521806 -2.010669871659299 0.535005870437590 16
2.702506298796768 -2.016588173838186 0.534067263647348 19
2.668606655565719 -2.005832383388883 0.528748491835980 21
2.650214112753487 -2.007251204540910 0.526558409325417 22
2.641620828804910 -2.015291797243784 0.526245540395337 22
2.624309314641282 -2.015159174394963 0.524055457884773 20
2.618468091862462 -2.025973027888464 0.524368326814854 22
2.592682940894939 -2.020529716554435 0.520613899653888 22
2.574737197738293 -2.021029714873413 0.518423817143325 20
2.563725204553481 -2.025434800876849 0.517485210353084 20
2.542374745790455 -2.023745554901135 0.514669389982360 20
2.526401214207625 -2.024753093261315 0.512792176401877 20
2.507021260514452 -2.023633688743344 0.510289224961233 18
2.495343887536442 -2.028634227923642 0.509350618170992 20
2.480605392547116 -2.031075081549238 0.507786273520589 20
2.462477794870418 -2.031354129984794 0.505596191010026 18
2.450458390654169 -2.036578110056678 0.504657584219785 20
2.427026405497445 -2.030748956003683 0.501216025988900 18
2.412015329271447 -2.033264923391727 0.499651681338497 18
2.401096744168604 -2.036998697696578 0.498713074548256 18
2.386106441498889 -2.039368331174744 0.497148729897854 18
2.371843652566571 -2.040827725428723 0.495584385247451 18
2.352406563741359 -2.039156212383347 0.493081433806808 18
2.339678164177486 -2.041750567625663 0.491829958086486 18
2.332536870549033 -2.049905129477452 0.491829958086486 19
2.316133849409221 -2.050583892400373 0.489952744506003 18
2.303064133706809 -2.053397834303078 0.488701268785681 19
2.273834880283911 -2.041628508278788 0.484008234834474 18
2.263763975059241 -2.046903521625497 0.483382496974313 15
2.255502933469670 -2.053069470712309 0.483069628044233 17
2.240683235283633 -2.054647244950505 0.481505283393831 16
2.229143730612356 -2.058435789042207 0.480566676603589 16
2.204585923823672 -2.050062190095704 0.476812249442624 16
2.190565001346904 -2.050611714553646 0.475247904792221 16
2.180160115391705 -2.055916260432789 0.474622166932060 16
2.169032513308731 -2.059054598853800 0.473683560141819 16
2.158976068520460 -2.063883386321542 0.473057822281658 16
2.134681168488203 -2.054967306851871 0.469303395120693 15
2.121821668772135 -2.056906465222632 0.468051919400371 15
2.116763249906691 -2.064941589705781 0.468364788330451 15
2.103544889525737 -2.067147805777938 0.467113312610129 15
2.091742722435857 -2.070674654983340 0.466174705819888 15
2.074348012280458 -2.068563412922268 0.463984623309325 15
2.063294649319415 -2.071232381138264 0.463046016519083 16
2.047355468673408 -2.070353332184936 0.461168802938601 16
2.039456609451376 -2.075366123423584 0.460855934008520 15
2.024939381221166 -2.075757148205091 0.459291589358118 16
2.010158591013028 -2.073598449027313 0.457414375777635 16
1.993318287646316 -2.070640733433557 0.455224293267072 15
1.981621362222894 -2.073648304762444 0.454285686476830 16
1.971651386963299 -2.077687045564568 0.453659948616670 16
1.967096392926150 -2.087431985957675 0.454285686476830 16
1.944950957412421 -2.078419915533592 0.450844128245945 16
1.929978378590628 -2.076177296790538 0.448966914665463 15
1.922355845102853 -2.083237075883269 0.448966914665463 16
1.909734098437360 -2.084109056406551 0.447715438945141 16
1.903777018681814 -2.092223625352092 0.448028307875221 16
1.882257877614985 -2.082405316982507 0.444586749644336 16
1.873293616964447 -2.087819854191293 0.444273880714256 16
1.861102505117813 -2.088121791016412 0.443022404993934 16
1.852493078971528 -2.093126288364063 0.442709536063853 15
1.838655364225960 -2.092160933507720 0.441145191413451 16
1.819651746338139 -2.085171188303217 0.438329371042727 14
1.805893953086394 -2.084045906866379 0.436765026392325 15
1.803395973075139 -2.096641244508315 0.438016502112646 15
1.790017511101265 -2.095100671613988 0.436452157462244 16
1.779771253171487 -2.098634226910737 0.435826419602083 16
1.768984194001809 -2.099992264661826 0.434887812811842 16
1.752405723149615 -2.095853729549034 0.432697730301279 16
1.747075105035762 -2.102868136217196 0.433010599231359 17
1.739355973257023 -2.109257362023045 0.433010599231359 17
1.724841664290814 -2.105844542435104 0.431133385650876 16
1.710002242813834 -2.102657239854164 0.429256172070394 17
1.694839741767878 -2.099687947187456 0.427378958489911 17
1.689970855144283 -2.108674106794406 0.428004696350072 17
1.681738707325139 -2.112721141334682 0.427691827419991 17
1.670679174242603 -2.113929229050536 0.426753220629750 17
1.651095797584337 -2.104207433609071 0.423624531328945 17
1.640944968324615 -2.107127815689898 0.422998793468784 17
1.632842101606604 -2.113413043383825 0.422998793468784 17
1.627859484722704 -2.122234613433365 0.423624531328945 17
1.617962720356565 -2.122342395734779 0.422685924538704 17
1.593487347682137 -2.106203780343054 0.418305759517577 16
1.580561125460951 -2.103580072594366 0.416741414867175 17
1.577932981628651 -2.115418031715439 0.417992890587497 17
1.568188074815802 -2.117738138162928 0.417367152727336 17
1.560786235248349 -2.123199234100173 0.417367152727336 17
1.545214285305055 -2.117464713485306 0.415177070216773 17
1.531650082561270 -2.115114308457019 0.413612725566370 17
1.518076386622980 -2.110294281029884 0.411735511985888 17
1.514922248282607 -2.122275271882449 0.412986987706210 17
1.505220797349776 -2.124326846521295 0.412361249846049 17
1.488335567784971 -2.116901842999437 0.409858298405405 17
1.481677790810575 -2.121567132910699 0.409858298405405 17
1.473891906405295 -2.126983503335461 0.409858298405405 17
1.463471317223209 -2.126977289364963 0.408919691615163 16
1.457151895470986 -2.133704071541997 0.409232560545244 18
1.437133206522725 -2.121041680201127 0.405791002314359 16
1.424208989177725 -2.117849278012765 0.404226657663957 17
1.417904239169311 -2.124450832560916 0.404539526594037 17
1.414843317020542 -2.135974730825020 0.405791002314359 17
1.401240043055228 -2.130751978295275 0.403913788733876 17
1.390183030839714 -2.130910167863208 0.402975181943635 18
1.375221425597659 -2.124142493960696 0.400785099433071 17
1.368866164594157 -2.130591899732146 0.401097968363152 18
1.359668858165024 -2.131788589127023 0.400472230502991 17
1.347621809979806 -2.130080337972609 0.399220754782669 17
1.335297857346431 -2.126173325871330 0.397656410132267 18
1.324733764177284 -2.125791955615639 0.396717803342025 17
1.321460831954920 -2.137123703142054 0.397969279062347 18
1.309860774368446 -2.134988462798423 0.396717803342025 18
1.305481682456817 -2.144609744510744 0.397656410132267 19
1.286382205293404 -2.130778137780856 0.394214851901382 18
1.276263243065207 -2.129948809110671 0.393276245111140 18
1.269457125423622 -2.136310421268277 0.393589114041221 19
1.259985929439635 -2.137325254282679 0.392963376181060 18
1.254137637212252 -2.145339692504643 0.393589114041221 19
1.241442272105308 -2.139018202836864 0.391711900460738 19
1.228667546177069 -2.134993429888355 0.390147555810336 19
1.220601281402750 -2.137340737632383 0.389834686880255 19
1.215080377806615 -2.145025951400325 0.390460424740416 19
1.210112251060904 -2.154632019150643 0.391399031530658 20
1.192009531236348 -2.139860340384988 0.387957473299773 19
1.183577494223900 -2.142279154515056 0.387644604369692 19
1.180838469027936 -2.155059373675452 0.389208949020094 22
1.168399654199966 -2.148346428020104 0.387331735439612 19
1.157705482960600 -2.147398045276077 0.386393128649370 17
1.143683244766399 -2.139231790848823 0.384203046138807 13
1.142685725777212 -2.155427958025403 0.386393128649370 8
1.265674753044828 -2.407691238900317 0.430820516720796 22
1.262318056300926 -2.422825168873886 0.432697730301279 30
1.264679849486954 -2.446080824359718 0.436139288532164 41
1.236309523938867 -2.411807185443630 0.429256172070394 30
1.226988255142448 -2.414347005803758 0.428943303140313 36
1.219441942197780 -2.420379409999263 0.429256172070394 36
1.211868454847480 -2.426388527659887 0.429569041000474 36
1.200338677581245 -2.425502630378136 0.428630434210233 35
1.183585983028840 -2.411736404721023 0.425501744909428 35
1.174738577301695 -2.416058265042096 0.425501744909428 36
1.168435945232876 -2.423499290347784 0.426127482769589 36
1.160396883147864 -2.429548044394880 0.426440351699669 37
1.150642952547316 -2.429812073061188 0.425814613839508 37
1.131662835450300 -2.412552263823825 0.422060186678543 36
1.125322211584313 -2.419874073027737 0.422685924538704 37
1.115215023735950 -2.420199299573178 0.422060186678543 35
1.107183221811495 -2.423884178784125 0.422060186678543 37
1.099530008406300 -2.429533857041280 0.422373055608623 38
1.080923554686835 -2.411915983785459 0.418618628447658 36
1.070093107775457 -2.410258106552019 0.417680021657416 37
1.066495250265746 -2.422647733881210 0.419244366307819 38
1.055240858458765 -2.421107808874614 0.418305759517577 37
1.047142584663997 -2.426772929488832 0.418618628447658 38
1.032454931525063 -2.415881735043869 0.416115677007014 38
1.022127140018193 -2.413835145573211 0.415177070216773 37
1.014800290226528 -2.421208870740295 0.415802808076934 37
1.007946697562744 -2.426209223917293 0.416115677007014 38
0.997217059139095 -2.424232277923919 0.415177070216773 37
0.983111634760745 -2.415063821430690 0.412986987706210 36
0.973937108832283 -2.416648625624288 0.412674118776129 37
0.964453236692853 -2.416195788014127 0.412048380915968 37
0.957767703161062 -2.425226334750416 0.412986987706210 36
0.946419593076716 -2.421195535682780 0.411735511985888 36
0.933977032213395 -2.415435885463430 0.410171167335485 37
0.924549418693499 -2.414830203883782 0.409545429475324 37
0.914992877684860 -2.416355260547497 0.409232560545244 36
0.908361735752803 -2.423075552319486 0.409858298405405 36
0.898787996753891 -2.424536384154092 0.409545429475324 36
0.888865813915442 -2.419775529295961 0.408293953755003 37
0.877715219387041 -2.415437106349852 0.407042478034681 36
0.866852792537970 -2.413060687556242 0.406103871244439 35
0.859747045432278 -2.419794628258376 0.406729609104600 36
0.850449386071414 -2.423077973736787 0.406729609104600 35
0.838747676268019 -2.416700942200908 0.405165264454198 36
0.827521547567187 -2.410127462572372 0.403600919803796 36
0.822490255782006 -2.424368219246171 0.405478133384278 36
0.813394516660499 -2.425351617548761 0.405165264454198 36
0.806788191780888 -2.433801236617979 0.406103871244439 36
0.793403452790021 -2.417415554644747 0.402975181943635 36
0.782710512999378 -2.414669924664483 0.402036575153393 37
0.778316146378914 -2.428538990330714 0.403913788733876 37
0.767448987708048 -2.423708132788366 0.402662313013554 37
0.758983991922380 -2.426372263624060 0.402662313013554 37
0.747010868211506 -2.417682788714499 0.400785099433071 37
0.738144600288114 -2.420404481308429 0.400785099433071 37
0.729837712603375 -2.424985223261541 0.401097968363152 38
0.722355179324070 -2.429285560531581 0.401410837293232 37
0.714002627536290 -2.433812300020172 0.401723706223313 38
0.700979796595653 -2.419090701765714 0.398907885852589 38
0.693194338265509 -2.425442329332859 0.399533623712750 38
0.684074412339074 -2.423925472655372 0.398907885852589 38
0.670949227357404 -2.411191875874329 0.396404934411945 35
0.665988826743369 -2.422811452749798 0.397969279062347 28
0.656493730690380 -2.421308342989206 0.397343541202186 38
0.644643758380563 -2.414268678576974 0.395779196551784 38
0.632188982598813 -2.401221956694541 0.393276245111140 34
0.631599247433796 -2.429962092321973 0.397656410132267 38
0.618700959960625 -2.414929819025919 0.394840589761543 35
0.605431795218000 -2.397922043848912 0.391711900460738 36
0.597115453650587 -2.402041988641275 0.392024769390819 34
0.595729357055619 -2.430869322097748 0.396404934411945 38
0.586313432470259 -2.429093531851289 0.395779196551784 38
0.574140976780373 -2.413728635071072 0.392963376181060 35
0.563040002964126 -2.406199649484436 0.391399031530658 38
0.554170279245331 -2.404203721516766 0.390773293670497 37
0.546211635235536 -2.408049929498074 0.391086162600577 35
0.539093370980123 -2.415725753795195 0.392024769390819 37
0.528540081713246 -2.407945605435075 0.390460424740416 36
0.519714790845121 -2.407844974426725 0.390147555810336 37
0.508427954136803 -2.398139102887274 0.388270342229853 37
0.502892333238662 -2.411414561178770 0.390147555810336 37
0.491277339395489 -2.399694892003429 0.387957473299773 36
0.486076721970590 -2.412845278351536 0.389834686880255 36
0.474165860410819 -2.399107513960599 0.387331735439612 36
0.466207526073812 -2.400666713509702 0.387331735439612 36
0.458144453953188 -2.406240357533468 0.387957473299773 36
0.449436485709597 -2.403862927047702 0.387331735439612 35
0.441755208461166 -2.409303080707840 0.387957473299773 36
0.430826921607268 -2.399240337413801 0.386080259719290 36
0.423134068141131 -2.404620558802244 0.386705997579451 35
0.414402249726583 -2.404136253533501 0.386393128649370 37
0.406336474623539 -2.407515968966062 0.386705997579451 35
0.398995210101004 -2.412748007778225 0.387331735439612 36
0.388258497302730 -2.402493735860840 0.385454521859129 36
0.379253191883229 -2.399932045590512 0.384828783998968 36
0.370873555151620 -2.401241265074185 0.384828783998968 36
0.364634495421760 -2.408190442002502 0.385767390789209 35
0.358979846125962 -2.431006759364946 0.389208949020094 39
0.346547419737029 -2.404872489941927 0.384828783998968 35
0.337325978996252 -2.400199057523537 0.383890177208727 35
0.330286112539294 -2.411147423000516 0.385454521859129 35
0.320038831834092 -2.398579478701738 0.383264439348566 35
0.315989414104180 -2.432983719258872 0.388583211159933 40
0.302619671271203 -2.398848354788965 0.382951570418485 33
0.297070518147291 -2.419445213329449 0.386080259719290 38
0.287266612411512 -2.412671693455098 0.384828783998968 36
0.280399546104292 -2.423422465167198 0.386393128649370 37
0.271955076365780 -2.428360111969508 0.387018866509531 38
0.263042735639587 -2.417419786964259 0.385141652929048 37
0.254180682386140 -2.418367649444723 0.385141652929048 37
0.245737455372375 -2.419240172080108 0.385141652929048 36
0.237869523079265 -2.425981064032679 0.386080259719290 36
0.229347372513598 -2.430769889182682 0.386705997579451 36
0.219788864096688 -2.419751983618355 0.384828783998968 36
0.211684658307431 -2.424440227560914 0.385454521859129 35
0.202890589542961 -2.421227419240247 0.384828783998968 36
0.195494086860102 -2.429762970961946 0.386080259719290 38
0.186738452511662 -2.432432753538338 0.386393128649370 38
0.176225931452883 -2.405488415416614 0.382012963628244 34
0.168927747331160 -2.421853613916489 0.384515915068887 38
0.159979251089303 -2.408603246070114 0.382325832558324 33
0.152139731037051 -2.424945423972641 0.384828783998968 38
0.145533317721972 -2.435245450373615 0.386393128649370 38
0.135922268566119 -2.416016040186545 0.383264439348566 37
0.126644453748880 -2.416520132725047 0.383264439348566 37
0.118594439550860 -2.424839555510087 0.384515915068887 38
0.110552729741415 -2.425219496252960 0.384515915068887 37
0.101911273939872 -2.431529334353649 0.385454521859129 38
0.093238072586819 -2.416062655755085 0.382951570418485 36
0.084520013316932 -2.420336508819097 0.383577308278646 36
0.076618208857641 -2.424552261637003 0.384203046138807 38
0.067841577463244 -2.428766009185153 0.384828783998968 36
0.059738518701047 -2.427002847225801 0.384515915068887 37
0.050594492323695 -2.415355837442959 0.382638701488405 36
0.043006190977233 -2.415502865173399 0.382638701488405 36
0.034602520507100 -2.417613443106357 0.382951570418485 36
0.025783352791559 -2.421674558501314 0.383577308278646 36
0.017414786256435 -2.433601762162000 0.385454521859129 38
0.008876384019590 -2.421795544297752 0.383577308278646 38
0.000422685897534 -2.421811774252975 0.383577308278646 38
-0.007620745316354 -2.425750593853063 0.384203046138807 38
-0.016511514509191 -2.425706369127615 0.384203046138807 36
-0.024595348354137 -2.429588828556226 0.384828783998968 38
-0.032941590721339 -2.419612204699666 0.383264439348566 37
-0.041421198439619 -2.421457563719326 0.383577308278646 38
-0.050378054808531 -2.425239384252897 0.384203046138807 38
-0.058420161429744 -2.425058989813688 0.384203046138807 38
-0.067048240557888 -2.430764168037939 0.385141652929048 37
-0.074803504973417 -2.420656292045073 0.383577308278646 38
-0.083320622524291 -2.422354640779260 0.383890177208727 38
-0.091775710561556 -2.422049039716904 0.383890177208727 37
-0.100816410133971 -2.425643741876873 0.384515915068887 37
-0.108789209905187 -2.433208669229150 0.385767390789209 38
-0.117324780329915 -2.424901319018833 0.384515915068887 38
-0.125072098485563 -2.410667942280521 0.382325832558324 35
-0.133906798098877 -2.410193338133165 0.382325832558324 33
-0.142635728058431 -2.429480574250305 0.385454521859129 38
-0.151908269385144 -2.434856100024181 0.386393128649370 38
-0.159334008715065 -2.424483343038814 0.384828783998968 38
-0.167523225081528 -2.419971071809733 0.384203046138807 38
-0.177109944632262 -2.429191550231485 0.385767390789209 38
-0.184083149520744 -2.408862183310991 0.382638701488405 34
-0.194851407564202 -2.437741384087243 0.387331735439612 39
-0.200238499225930 -2.399644208512727 0.381387225768083 35
-0.209561237639904 -2.414710835591187 0.383890177208727 37
-0.219834215004417 -2.429665258434985 0.386393128649370 38
-0.226280424267660 -2.407249314945850 0.382951570418485 34
-0.236024049046507 -2.420207130691663 0.385141652929048 26
-0.242018501966500 -2.407703348470638 0.383264439348566 32
-0.252684467806306 -2.424482747471000 0.386080259719290 39
-0.258821407942271 -2.405955080279266 0.383264439348566 35
-0.269835829113041 -2.428596512863460 0.387018866509531 38
-0.278986536462388 -2.433527380446659 0.387957473299773 39
-0.284233697046402 -2.405074563093013 0.383577308278646 35
-0.292388557787861 -2.402106846250925 0.383264439348566 35
-0.301928365597013 -2.406899100790388 0.384203046138807 35
-0.310413007134567 -2.409803015187663 0.384828783998968 36
-0.320021933907531 -2.414523862384004 0.385767390789209 35
-0.326164745664696 -2.399747696583788 0.383577308278646 34
-0.338783039679100 -2.425925607049121 0.387957473299773 39
-0.344728680441367 -2.407129419881747 0.385141652929048 34
-0.356995391239968 -2.429302395652720 0.388896080090014 38
-0.362112444815783 -2.408570965845354 0.385767390789209 35
-0.372320726291904 -2.419006601371013 0.387644604369692 37
-0.380954341477596 -2.421661398927209 0.388270342229853 37
-0.390660329952949 -2.428118049012824 0.389521817950175 38
-0.401265809862459 -2.434396430902193 0.390773293670497 38
-0.409760994560572 -2.432980920658986 0.390773293670497 37
-0.415642582171578 -2.423966583355995 0.389521817950175 38
-0.419409324179465 -2.393241029607591 0.384828783998968 33
-0.433325106520251 -2.422874794322684 0.389834686880255 38
-0.443198111843026 -2.429120632467876 0.391086162600577 38
-0.453119983902260 -2.435326971424001 0.392337638320899 38
-0.460569039016438 -2.425887007616355 0.391086162600577 38
-0.467016329201789 -2.420630580028770 0.390460424740416 38
-0.476986981607438 -2.426738800615852 0.391711900460738 38
-0.486230462048565 -2.428932917009611 0.392337638320899 38
-0.495889565205969 -2.433027606532881 0.393276245111140 38
-0.503197350158783 -2.423457242655058 0.392024769390819 38
-0.506354861251138 -2.394539708417968 0.387644604369692 35
-0.521340515110950 -2.427701353613152 0.393276245111140 38
-0.526860377538276 -2.410335739172893 0.390773293670497 35
-0.536563333757758 -2.416288966380229 0.392024769390819 35
-0.548027599583397 -2.425867056931632 0.393901982971301 38
-0.556934128300081 -2.425864593763428 0.394214851901382 39
-0.561330977868778 -2.404570470314238 0.391086162600577 35
-0.572523223520564 -2.418173022725601 0.393589114041221 36
-0.580037108628044 -2.412318539827359 0.392963376181060 36
-0.587468253977696 -2.404419603719882 0.392024769390819 35
-0.601564203511496 -2.425361691919456 0.395779196551784 38
-0.609603685111037 -2.423353497671330 0.395779196551784 37
-0.618547637745035 -2.423124820454437 0.396092065481865 38
-0.629973727611784 -2.432424624822219 0.397969279062347 38
-0.637377974404354 -2.424367951244069 0.397030672272106 38
-0.640327959282518 -2.403153206179823 0.393901982971301 35
-0.654895751073756 -2.423787312184437 0.397656410132267 38
-0.664494462238650 -2.427318092491940 0.398595016922508 36
-0.673915125390153 -2.426769643450938 0.398907885852589 37
-0.681958878115301 -2.424521517158456 0.398907885852589 37
-0.690959387075398 -2.424025972295500 0.399220754782669 33
-0.700512871479707 -2.425394916134790 0.399846492642830 36
-0.711193825407865 -2.430518414346347 0.401097968363152 36
-0.720796320816676 -2.431808941458056 0.401723706223313 36
-0.725726364877976 -2.415907723164103 0.399533623712750 36
-0.738330422938634 -2.428607580240618 0.402036575153393 36
-0.747808254895077 -2.427772999840904 0.402349444083474 35
-0.755267172026304 -2.423393919918575 0.402036575153393 35
-0.765928276213107 -2.426260678170158 0.402975181943635 35
-0.773123754598775 -2.423977446844873 0.402975181943635 35
-0.781395738051681 -2.419247767847114 0.402662313013554 35
-0.792480832660954 -2.426031932827519 0.404226657663957 35
-0.800324510361866 -2.421375297095575 0.403913788733876 35
-0.811701103728946 -2.425918882956512 0.405165264454198 34
-0.820164195750060 -2.423070737822034 0.405165264454198 35
-0.827977435414738 -2.418324193379047 0.404852395524118 33
-0.837706675075571 -2.419152539605768 0.405478133384278 33
-0.849639658122181 -2.427548160726218 0.407355346964761 33
-0.859850148620289 -2.428141914374600 0.407981084824922 33
-0.865657146677396 -2.417686648323965 0.406729609104600 33
-0.874091174118362 -2.414650211605400 0.406729609104600 33
-0.884807770990212 -2.419159077617761 0.407981084824922 33
-0.896409803556704 -2.423310581720184 0.409232560545244 33
-0.906783004483946 -2.427884560425021 0.410484036265566 33
-0.912461975134736 -2.417312113758338 0.409232560545244 33
-0.919486314626839 -2.410420996769891 0.408606822685083 31
-0.931447082021207 -2.416412619334873 0.410171167335485 32
-0.943460839112481 -2.422349998086753 0.411735511985888 33
-0.955951144578951 -2.428066028279012 0.413299856636290 34
-0.958889406692915 -2.412033138111996 0.411109774125727 33
-0.972142338219585 -2.419500159583857 0.412986987706210 33
-0.980160344713088 -2.416263116185254 0.412986987706210 33
-0.993505307329750 -2.423621030358991 0.414864201286692 33
-1.000781554828504 -2.418487848296203 0.414551332356612 32
-1.008877042135440 -2.412981062766568 0.414238463426531 31
-1.021481415381294 -2.420541976785286 0.416115677007014 33
-1.031473219030959 -2.420596123180490 0.416741414867175 33
-1.043039264274921 -2.424239063417456 0.417992890587497 33
-1.053069177676331 -2.424207035495256 0.418618628447658 33
-1.057557989568354 -2.411471091070034 0.417054283797256 32
-1.070767212237095 -2.418602484432455 0.418931497377738 34
-1.082810010711244 -2.424056461293871 0.420495842028141 33
-1.094936418249865 -2.427274075987740 0.421747317748462 33
-1.105039610930887 -2.427032851069295 0.422373055608623 33
-1.108555894066435 -2.412391153309847 0.420495842028141 31
-1.118211108305007 -2.412286163002987 0.421121579888302 31
-1.132069043315420 -2.418906302834168 0.422998793468784 31
-1.143457231358671 -2.422284308075032 0.424250269189106 30
-1.152755103090766 -2.420061531045974 0.424563138119187 32
-1.158207786538166 -2.410883858600139 0.423624531328945 30
-1.170062714696764 -2.413936540655183 0.424876007049267 31
-1.183688638795827 -2.420484847105600 0.426753220629750 31
-1.197798039471257 -2.426758291941651 0.428630434210233 31
-1.207599222788649 -2.426309802119202 0.429256172070394 31
