# This PCD file was generated using the MATLAB® pcwrite function
# from Computer Vision Toolbox®.
# .PCD v.7 - Point Cloud Data file format
VERSION .7
FIELDS x y z intensity
SIZE 8 8 8 1
TYPE F F F U
COUNT 1 1 1 1
WIDTH 892
HEIGHT 1
VIEWPOINT 0 0 0 1 0 0 0
POINTS 892
DATA ascii
-3.062092011239370 3.680458669681128 0.418870499645245 27
-3.050495082406063 3.692660991545369 0.419044811130740 27
-3.027478263814626 3.690962960118002 0.417650319246778 31
-3.009543273241804 3.695328865087205 0.416953073304797 27
-2.979087053181793 3.684122085481695 0.414512712507862 26
-2.963069894193250 3.691908572684824 0.414164089536872 28
-2.970031105069799 3.727159960288739 0.416953073304797 40
-2.963837456357009 3.744799875861013 0.417824630732273 38
-2.956902693365825 3.762955748342841 0.418696188159750 36
-2.951762915357687 3.782164498940183 0.419742057072722 36
-2.950745964821911 3.808194388543252 0.421485171927675 36
-2.957415670241601 3.845833596519360 0.424448467181095 36
-2.958481474925811 3.875137006098410 0.426540205007039 36
-2.954564607477593 3.898143131727924 0.427934696891002 36
-2.951720996865754 3.922761004691192 0.429503500260459 38
-2.956586214572621 3.956467596323435 0.432118172542889 38
-2.959376595073953 3.989165959148608 0.434558533339824 40
-2.960793039314799 4.020327457103040 0.436824582651263 38
-2.958500184192834 4.046722011064642 0.438567697506216 38
-2.958399499682107 4.076374328043661 0.440659435332160 38
-2.954633829056737 4.101225319473240 0.442228238701618 36
-2.955366454532709 4.132581995235731 0.444494288013057 38
-2.960529199880308 4.170492125377219 0.447457583266477 40
-2.962020179378637 4.203602300037583 0.449897944063411 40
-2.957606219550120 4.228610082053065 0.451466747432869 38
-2.954189865747975 4.255274733532139 0.453209862287822 16
nan nan nan 0
nan nan nan 0
nan nan nan 0
nan nan nan 0
nan nan nan 0
nan nan nan 0
nan nan nan 0
nan nan nan 0
-3.280762834989290 5.055794508320893 0.527292243623332 3
nan nan nan 0
-5.270937739935109 8.248277609408042 0.856392328238489 3
-5.242113765668194 8.266626364359665 0.856392328238489 7
-5.230203653434954 8.311855461730227 0.859181312006414 3
-5.194826705240369 8.319921577985475 0.858135443093442 3
-5.169950350531813 8.344778953650012 0.858832689035424 3
-5.147050488226820 8.372958625075405 0.859878557948395 7
-5.130241575310453 8.411285786855588 0.861970295774339 7
-5.107038552925425 8.439369900556665 0.863016164687311 7
-5.089855262988671 8.477643405972893 0.865107902513255 3
nan nan nan 0
nan nan nan 0
nan nan nan 0
-6.326961879630202 10.870808925407651 1.100428407931932 3
-6.288977129053195 10.892827915158772 1.100428407931932 3
-6.201407466768011 10.828267844855990 1.091712833657166 3
-6.161678227473747 10.850924408081747 1.091712833657166 3
nan nan nan 0
nan nan nan 0
nan nan nan 0
nan nan nan 0
nan nan nan 0
-5.794723617597761 10.712647808039769 1.065566110832869 2
-5.757294194926548 10.732809903119948 1.065566110832869 2
-5.695467014676958 10.707106906613957 1.061034012209990 2
-5.654339412527937 10.719873495057373 1.060336766268009 5
-5.644586850566726 10.792510558246109 1.065566110832869 5
-5.641733393154184 10.879359219987043 1.072189947281691 2
-5.660206603739891 11.008844359838571 1.082997259382400 2
nan nan nan 0
nan nan nan 0
nan nan nan 0
nan nan nan 0
nan nan nan 0
nan nan nan 0
nan nan nan 0
nan nan nan 0
nan nan nan 0
nan nan nan 0
-3.400094390275497 7.284885816146297 0.703346843973601 4
-3.341190952073964 7.224375802677793 0.696374384553789 8
-3.302672406985733 7.207014518089427 0.693585400785864 8
-3.270905525002910 7.203985896164637 0.692190908901901 28
-3.242469551511681 7.208091545035060 0.691493662959920 37
-3.210435523518201 7.200607191808294 0.689750548104967 33
-3.180451312222354 7.200834626308409 0.688704679191995 28
-3.153699118207375 7.208241936261706 0.688356056221004 4
-3.126933983775553 7.215550265426905 0.688007433250014 12
-3.101416835958231 7.222218424437223 0.687658810279023 20
-0.871001686770864 2.047975015164591 0.194705929298268 1
-3.029557628257484 7.196482645910344 0.683126711656145 28
-3.012085048077551 7.225403863029549 0.684869826511098 37
-3.005090250509518 7.280073772501962 0.689053302162986 28
-3.005287982282619 7.353225353022461 0.694979892669826 28
-3.001274677763759 7.417231654151391 0.700034925749190 24
-3.000555269507731 7.490546469530435 0.705961516256031 24
-3.003766794833556 7.575058428063930 0.712933975675844 24
-3.010064258585053 7.668956398668800 0.720777992523133 20
nan nan nan 0
nan nan nan 0
-5.746533769151012 15.104028892878841 1.413840458852511 4
nan nan nan 0
-5.757613705514397 15.440500709825937 1.441730296531762 4
nan nan nan 0
nan nan nan 0
nan nan nan 0
nan nan nan 0
nan nan nan 0
nan nan nan 0
nan nan nan 0
nan nan nan 0
nan nan nan 0
nan nan nan 0
nan nan nan 0
nan nan nan 0
nan nan nan 0
-3.417369009397289 10.740383193460174 0.986080073447005 3
-3.371492751387822 10.725636836245998 0.983639712650070 6
-3.318763127375175 10.681580750492151 0.978584679570706 28
-3.275612101141933 10.674053115864480 0.976841564715753 31
-3.236599163536331 10.679701858516678 0.976318630259267 34
-3.197586723770554 10.685208369705245 0.975795695802781 31
-3.157051895029178 10.678557453802100 0.974226892433323 31
-3.119199343482904 10.687599965622061 0.974052580947828 31
-3.075806973885875 10.677363003128230 0.972135154607379 31
-3.059220825279230 10.760859574383662 0.978758991056201 18
-3.061461922646117 10.913429764558069 0.991658040982855 15
-3.062674671732564 11.066144988487691 1.004557090909508 12
-3.061808630249452 11.215155826328589 1.017107517865171 2
nan nan nan 0
nan nan nan 0
nan nan nan 0
nan nan nan 0
nan nan nan 0
nan nan nan 0
nan nan nan 0
-3.453410830032602 14.187982154166461 1.277528877195173 3
-3.409437744048174 14.223200390596791 1.279620615021117 3
-3.348784614636982 14.188476229260431 1.275437139369230 28
-3.295629986001285 14.184553652750512 1.274042647485267 31
-3.242099466681814 14.178490799947031 1.272473844115809 28
-3.193024886485505 14.191665256280844 1.272648155601305 28
-3.140883959218574 14.191052659306584 1.271602286688333 28
-3.104465364154902 14.262280835300245 1.277005942738688 14
-3.106837364875641 14.492101523014929 1.296703140599658 10
-3.221388853306362 15.286585630664483 1.366776357768775 3
-3.172605511957776 15.333409079371162 1.369913964507691 7
-3.129381419947204 15.395154106017714 1.374446063130569 7
-3.129452762913620 15.647167921447590 1.396060687331989 8
-3.120885282499328 15.892602436829275 1.416978065591426 8
nan nan nan 0
nan nan nan 0
nan nan nan 0
nan nan nan 0
-2.849341140161100 15.979955023221661 1.420115672330342 4
-2.795600682006242 16.001579693907011 1.421161541243314 4
-2.736261790154205 16.007790792829990 1.420812918272323 4
-2.678394467726717 16.005454214136016 1.419767049359351 4
-2.623369816753540 16.002451219007021 1.418721180446380 4
-2.569387590165252 16.023314542786029 1.419767049359351 4
-0.528579941493105 3.367749397039995 0.298246951682486 1
-0.508363460557143 3.314431904114785 0.293366230088617 3
-0.498561927344255 3.328008641900478 0.294412099001589 4
-0.486941971858655 3.329728672430216 0.294412099001589 4
-0.473627571298162 3.319573644122058 0.293366230088617 4
-0.464233466670581 3.336993767630563 0.294760721972580 3
-0.449905937954629 3.318850603584353 0.293017607117627 3
-0.440925731523960 3.340153382116196 0.294760721972580 3
-0.429771438125678 3.345624453745274 0.295109344943571 4
-0.415620887089275 3.327333997851541 0.293366230088617 10
nan nan nan 0
-0.394480072220669 3.347962783344501 0.294935033458075 46
-0.382112390264910 3.343380869294959 0.294412099001589 27
-0.371974758319453 3.358556287238597 0.295632279400056 7
-0.358124833531846 3.340023916466882 0.293889164545103 6
-0.347491265196163 3.351162475529137 0.294760721972580 6
-0.338555721425663 3.368096808703030 0.296155213856542 7
-0.325258034449396 3.353393404867422 0.294760721972580 12
nan nan nan 0
-0.302090296435015 3.371563071055529 0.296155213856542 54
-0.289952618955362 3.354630579589541 0.294586410487085 46
-0.278405646133394 3.357607840856828 0.294760721972580 52
-0.266999126818508 3.362531478039296 0.295109344943571 52
-0.255260074905900 3.363442993226734 0.295109344943571 34
-0.242798722201991 3.354377573394908 0.294237787516094 12
-0.231362081445139 3.359180024057316 0.294586410487085 13
nan nan nan 0
-0.208151174756490 3.364690537699801 0.294935033458075 51
-0.196985337704094 3.375341647525221 0.295806590885552 58
-0.184219782025585 3.358104107425510 0.294237787516094 57
-0.172701068803659 3.362706229748654 0.294586410487085 58
-0.160961981389795 3.363288582221783 0.294586410487085 57
-0.149397525524753 3.367810817935913 0.294935033458075 58
-0.137722109713999 3.370302522774907 0.295109344943571 51
-0.125733523788562 3.364789730094890 0.294586410487085 27
-0.114729379889883 3.387111844054848 0.296503836827533 78
-0.103131613771113 3.375524916133306 0.295457967914561 51
-0.091455990124598 3.379847668558303 0.295806590885552 60
-0.079704503121547 3.382138154720142 0.295980902371047 67
-0.067858165064963 3.380403782127615 0.295806590885552 60
-0.056024906850122 3.378627941219507 0.295632279400056 58
-0.044309191836935 3.384779576992325 0.296155213856542 51
nan nan nan 0
-0.019703048354756 3.420875852384232 0.299292820595458 3
-0.008893377668188 3.397012279082058 0.297201082769514 4
nan nan nan 0
0.001781979053881 3.403328987922551 0.178360938875953 3
0.014255791393750 3.403299597140255 0.178360938875953 3
0.025093889894662 3.423210070816662 0.179407658000811 4
nan nan nan 0
nan nan nan 0
0.060655198477657 3.406784055532981 0.178570282700924 36
nan nan nan 0
0.084932310156256 3.426244042000896 0.179617001825783 2
0.097343325500727 3.441898385303762 0.180454377125670 2
0.108976606418386 3.429560115330160 0.179826345650755 2
0.121404343736650 3.425145649162527 0.179617001825783 2
0.133515024369219 3.428692494767879 0.179826345650755 3
0.145651943984792 3.432196477727994 0.180035689475727 3
0.157906597054187 3.437652613402972 0.180349705213184 18
0.169708061700678 3.433090826644807 0.180140361388213 12
nan nan nan 0
0.194233897340296 3.441792819600893 0.180663720950642 2
0.206246812977572 3.441093848192586 0.180663720950642 2
0.219170014091659 3.464310277262801 0.181919783900473 2
0.230463007708582 3.451567195141996 0.181291752425557 2
0.242229787127549 3.446757010803569 0.181082408600586 3
nan nan nan 0
0.266440514920317 3.446973265614943 0.181187080513072 46
0.279275438523671 3.455976062620367 0.181710440075501 40
0.289562016731762 3.441099373352866 0.180977736688100 32
nan nan nan 0
0.315573173567603 3.460873091137327 0.182129127725445 2
0.328028563981028 3.463727175024788 0.182338471550416 2
0.341503924076890 3.470452260239449 0.182757159200360 1
1.819439471151203 17.881006354824880 0.941942540460503 31
1.877272628305821 17.891093021653333 0.942779915760390 37
1.940789541198653 17.894359191866556 0.943303275322820 37
2.010153408419012 17.892729520188738 0.943617291060277 37
2.073288160118549 17.891555714726415 0.943931306797735 37
2.138375712771367 17.879870306230757 0.943721962972763 34
2.201995562717550 17.882208485325371 0.944245322535193 37
2.267163864360206 17.896208790302644 0.945396713572537 40
2.331167055718930 17.900069087578643 0.946024745047453 40
2.391570989527837 17.900158910768162 0.946443432697396 40
2.453496825261415 17.887744250673084 0.946234088872425 37
2.513357162119043 17.883465452879339 0.946443432697396 37
2.579470063987745 17.900282161154539 0.947804167559713 37
2.645644773045660 17.894659262391343 0.948013511384684 37
2.710783721911488 17.903087972772393 0.948955558597058 40
2.770137596258263 17.894000252755230 0.948955558597058 40
2.834769518016951 17.898030338134166 0.949688261984459 34
2.903866388696374 17.909206792899589 0.950839653021803 37
2.968975880674531 17.914724364436584 0.951677028321691 43
3.028902006744686 17.926971485356908 0.952828419359035 51
3.095947107187793 17.923622051986992 0.953247107008979 48
3.157106080709260 17.904838318130949 0.952828419359035 25
3.222415868582560 17.909434427753574 0.953665794658923 40
3.293087991811209 17.925004766142646 0.955131201433725 48
3.354715734177534 17.925764994319533 0.955759232908640 48
3.416145145957616 17.908059994838496 0.955445217171183 48
3.481683888569723 17.911710831280494 0.956282592471070 48
3.542584942544181 17.924196708590152 0.957538655420900 48
3.609465466695162 17.933259504048809 0.958690046458245 51
3.677577483850205 17.931648911230351 0.959318077933160 48
3.741372485540241 17.924567893515309 0.959632093670618 46
3.813079297221479 17.923744746276451 0.960364797058019 48
3.879423311275733 17.927894129626306 0.961306844270392 46
3.940440172742889 17.937076277652451 0.962458235307737 48
3.990838492612822 17.868633726526880 0.959527421758132 17
3.998779836469106 17.600695186119452 0.945920073134967 14
4.003583388875295 17.341424859598142 0.932731412161745 13
4.005672572991193 17.105127112490482 0.920694142225868 11
3.999726307415291 16.815127836361366 0.905830730652872 10
4.008298965055682 16.580983758275760 0.894002804541966 13
4.010928328380134 16.341887142048407 0.881860862693604 15
4.015399992474777 16.128872221387518 0.871079655707557 15
4.015899419108511 15.894007493042039 0.859147057684166 14
4.019015250854133 15.687125769168448 0.848679866435577 14
4.025704361108532 15.477062879364384 0.838108003274502 16
4.022014552761667 15.255051590027200 0.826803436726027 15
4.024164186633561 15.049901223178420 0.816440917389924 13
4.031705994876222 14.859641910409287 0.806915773353708 15
4.029610696063466 14.659385491924620 0.796762597842577 17
4.032125502648549 14.480473087292822 0.787760813368790 17
4.028942454637376 14.276014520504512 0.777398294032688 19
4.035365378800194 14.110162384372950 0.769129212946302 16
4.040680059001954 13.944441205029698 0.760860131859917 18
4.047444015240535 13.769779144185524 0.752172363123589 18
4.051600590102383 13.608172289411774 0.744112625862175 20
4.053525582268523 13.442881559825871 0.735843544775790 18
4.056096378179118 13.283475619446888 0.727888479426863 20
4.061209639283427 13.144007756895087 0.720980133202794 20
4.061749986538717 12.984881913189072 0.713025067853867 21
4.064244035375383 12.835434641192409 0.705593362067369 21
4.065135203343848 12.684227852932517 0.698056984368385 21
4.069334153543664 12.546471711526653 0.691253310056802 22
4.072621406820236 12.408842313964577 0.684449635745219 19
4.071597869377082 12.268264197481523 0.677436617608665 21
4.075618213051211 12.138480542887095 0.671051630947026 22
4.077022505529695 11.996761405066833 0.664038612810471 22
4.082515895037595 11.876684849832694 0.658176985711262 24
4.079924997941078 11.742337605793619 0.651477983312165 22
4.081865040624863 11.610484221214728 0.644988324738040 21
4.084904841919971 11.497138426866730 0.639440713376288 22
4.081797398496708 11.362511514837516 0.632741710977191 22
4.081209345702510 11.237434281845896 0.626566068140524 20
4.083362868694015 11.128212960863394 0.621227800603743 22
4.081898525705308 11.005280664333073 0.615156829679562 22
4.082430549116091 10.889976171670668 0.609504546405324 24
4.085038238843196 10.782274120297213 0.604270950781029 25
4.089800706934674 10.682148596153267 0.599456042806679 25
4.092877378811298 10.573957180038104 0.594222447182384 25
4.097754419040691 10.477762960311466 0.589616883033005 26
4.102744102207290 10.383522047413294 0.585115990796112 27
4.099721945780388 10.270825500457423 0.579568379434360 26
4.101938636752136 10.173096555882989 0.574858143372495 27
4.099003287112499 10.064379919461953 0.569519875835715 26
4.099158437384361 9.965044325264856 0.564704967861364 27
4.100202966428266 9.869520165238750 0.560099403711985 27
4.099858286710561 9.772269383380078 0.555389167650120 31
4.099664160778293 9.676981305704004 0.550783603500741 29
4.098855173098949 9.581814641250908 0.546178039351362 29
4.102183736542321 9.497773802434283 0.542200506676898 31
4.104082650817683 9.420752809937175 0.538536989739892 31
4.101563113840522 9.325926294795050 0.533931425590513 31
4.104907689297885 9.241469457490307 0.529953892916049 31
4.110958479811429 9.164403561106516 0.526395047891529 31
4.110033552088228 9.081576302630699 0.522417515217065 33
4.112664885985480 9.003589607753703 0.518753998280059 33
4.113014015603858 8.917723064337832 0.514671793693110 37
4.110548704717478 8.835221826185695 0.510694261018646 37
4.114369796393780 8.767300269204693 0.507554103644069 35
4.114175347694551 8.687901758219700 0.503785914794577 37
4.122949206731600 8.628435278478614 0.501169116982430 37
4.117480132575944 8.540228687786636 0.496877568570509 35
4.119038867454916 8.464019815985468 0.493318723545989 37
4.120391119832179 8.392219681393080 0.489969222346440 35
4.123065626402226 8.324093422221969 0.486829064971863 38
4.123529588431824 8.252478127492481 0.483479563772315 40
4.122645205546673 8.179178206488992 0.480025390660281 40
4.120394515761039 8.104205369151025 0.476466545635761 40
4.125873557947730 8.045343361244145 0.473849747823613 40
4.130992149964604 7.986542391032198 0.471232950011466 40
4.125132378889157 7.910816499065992 0.467569433074460 38
4.122972531935805 7.839802124783055 0.464219931874912 40
4.122239156276152 7.772428821160758 0.461079774500335 40
4.122969931408043 7.708679165348946 0.458148960950730 40
4.126150513754751 7.650293352949786 0.455532163138583 40
4.128974012960417 7.591979799245303 0.452915365326436 44
4.124012239991471 7.526424204541780 0.449775207951859 46
4.124517909001545 7.462313723337876 0.446844394402254 46
4.127207084002449 7.405999630092304 0.444332268502593 42
4.133466995065501 7.356723144017363 0.442238830252875 44
4.134800489798296 7.296345208346302 0.439517360528242 44
4.131240216057362 7.234031411614660 0.436586546978637 44
4.069532054685869 7.071419951237366 0.427584762504851 53
4.133278872559199 7.124547241135924 0.431666967091801 48
4.144007162636527 7.085938981780607 0.430201560316998 48
4.145387875271977 7.031858045078664 0.427794106329823 46
4.139494928066602 6.963395985571505 0.424549277042760 42
4.139138766147844 6.907786253035563 0.422037151143099 42
4.143607845419508 6.860812588739024 0.420048384805867 44
4.142607122075884 6.805362128838167 0.417536258906206 47
4.144403444066244 6.755109941000942 0.415338148744002 45
4.142748506059986 6.699832347932318 0.412826022844341 42
4.146040043526996 6.653124431884344 0.410837256507109 47
4.081073733504747 6.498228140899896 0.402149487770780 47
4.121821122953021 6.515040099250084 0.404033582195526 47
4.148832603118104 6.507348952739595 0.404452269845470 45
4.145612137978981 6.452499060218929 0.401940143945809 45
4.140974171659720 6.396074872519842 0.399323346133661 49
4.146906045265471 6.356489800981076 0.397753267446373 47
4.148223725659309 6.310265793256178 0.395764501109141 49
4.151492089815563 6.272220355307226 0.394194422421853 45
4.147850048500825 6.217087819368713 0.391682296522192 47
4.147241448928211 6.169420141780083 0.389588858272474 47
4.150830998446916 6.128447492424217 0.387914107672700 47
4.153122719815863 6.088250227544624 0.386239357072925 47
4.157455632094428 6.051397828133455 0.384773950298123 45
4.152409245893701 5.999077372156105 0.382366496310948 47
4.148191008214179 5.948504596324354 0.380063714236258 47
4.151590553591676 5.907115850186660 0.378388963636484 49
4.153718840884694 5.866507495314026 0.376714213036710 49
4.161271589794966 5.831734384683395 0.375458150086879 49
4.151292872716295 5.775008125712675 0.372736680362246 47
4.147997724703942 5.728129054318455 0.370643242112528 47
4.160904999038348 5.703933584192096 0.370015210637613 47
4.157136401036908 5.657185741389164 0.367921772387895 49
4.160222202126805 5.620165919350855 0.366456365613093 49
4.153549279003729 5.570384596639961 0.364153583538403 52
4.151377722353748 5.527106641236656 0.362269489113657 49
4.158595227021990 5.496654241284561 0.361222769988798 49
4.160808491913707 5.459864772430916 0.359757363213996 52
4.160383534423050 5.419958458239782 0.358082612614222 52
4.152400991781713 5.370641555310828 0.355779830539532 52
4.156396790680009 5.337204756859054 0.354523767589701 52
4.160209932289241 5.303805732503823 0.353267704639871 54
4.161080560436563 5.272624808733466 0.352011641690040 51
4.165461145122543 5.238578812278861 0.350755578740210 51
4.159658086380904 5.192102013269245 0.348662140490492 54
4.155180874141247 5.149572107460736 0.346778046065746 54
4.163947942071749 5.121910052707536 0.345940670765859 54
4.163199553388895 5.086435910454470 0.344475263991056 54
4.167729617606541 5.059457556249972 0.343533216778683 57
4.156034317390449 5.009524525005623 0.341125762791508 51
4.158128227264816 4.976594642197924 0.339869699841677 57
4.162614967665172 4.946767795107029 0.338822980716818 57
4.166934103195701 4.911741926817198 0.337566917766988 57
4.174972228344694 4.886537179289014 0.336834214379586 60
4.162958061489966 4.841594247355919 0.334636104217383 60
4.161529087752555 4.805895227546583 0.333170697442580 57
4.165152579580866 4.776286596492851 0.332123978317722 57
4.168620231454675 4.746711410476955 0.331077259192863 54
4.174578647262693 4.720162575262079 0.330239883892976 54
4.169775623351251 4.681698431561959 0.328565133293201 60
4.169043955276188 4.644844267344887 0.327099726518399 59
4.171839345566632 4.615446447652904 0.326053007393540 62
4.174223284684190 4.589020247631341 0.325110960181167 62
4.178074879120187 4.561166607385599 0.324168912968794 59
4.167675116101889 4.516466264150501 0.322075474719076 62
4.168459799332975 4.485796989817745 0.320924083681732 62
4.167525930830505 4.456632477655556 0.319772692644387 59
4.170137280832356 4.426789899330682 0.318725973519528 59
4.171818559936089 4.397716429500659 0.317679254394669 62
4.162310894650833 4.357131789745468 0.315795159969923 59
4.171328108098333 4.334651255459498 0.315271800407494 62
4.169003380756189 4.303580477680462 0.314015737457663 68
4.172096307586282 4.278292616652240 0.313178362157776 62
4.174410317570183 4.250877907467222 0.312236314945403 62
4.168893320466455 4.214250938449132 0.310666236258115 59
nan nan nan 0
2.608777176610274 2.599686683047647 0.193015006623977 20
2.622094835133669 2.594779097472097 0.193329022361435 25
2.611720877757873 2.568323623159337 0.191968287499118 26
2.616383278354470 2.555005123451345 0.191654271761660 26
2.612823891650899 2.532886921800046 0.190712224549287 28
2.621649398751801 2.523751033171018 0.190712224549287 30
2.627117102180038 2.512282703811197 0.190502880724316 30
2.627180916762228 2.494845079804133 0.189874849249400 28
2.621342820417011 2.471956665300155 0.188828130124541 30
2.618292815099533 2.451869941595316 0.187990754824654 31
2.623910280289765 2.439995283330002 0.187781410999682 31
2.626542099698749 2.425401370579528 0.187362723349739 32
2.630576140371872 2.412168723511438 0.187048707612281 30
2.627166029249560 2.392214036091993 0.186211332312394 31
2.626197151808772 2.375450138033160 0.185583300837479 30
2.631913737544425 2.363139981927957 0.185373957012507 31
2.633773584951522 2.349081576179642 0.184955269362564 28
2.638967033114197 2.337225265380663 0.184745925537592 32
2.628015551123468 2.310393935002039 0.183385190675275 27
2.628140775509396 2.295097735353971 0.182861831112846 27
2.639154050706971 2.288526784100172 0.183071174937818 29
2.635018353084229 2.268874857981110 0.182233799637930 27
2.647871320759942 2.263094731512288 0.182547815375388 29
2.635958525987808 2.237037749151170 0.181187080513072 28
2.639169294674812 2.223961863091256 0.180873064775614 31
2.646916291577122 2.214735893921053 0.180873064775614 31
2.648486057388256 2.200377654312141 0.180454377125670 31
2.649987910694897 2.186035503756948 0.180035689475727 31
2.648331747751775 2.169178610926425 0.179407658000811 32
2.643491252083884 2.149839681067427 0.178570282700924 31
2.650979487955770 2.140599077028176 0.178570282700924 32
2.649085708214906 2.123836496946069 0.177942251226009 33
2.653357867667347 2.112088785944985 0.177732907401037 30
2.645044572876007 2.090429907548113 0.176686188276178 29
2.645677874419707 2.076714316662020 0.176267500626235 31
2.649760116347855 2.065011101964330 0.176058156801263 29
2.650991554709453 2.050397657464374 0.175639469151319 29
2.658132627446506 2.041131478317987 0.175639469151319 31
2.655004375544438 2.025502101337425 0.175011437676404 30
2.648079222368898 2.004907050055342 0.174069390464031 29
2.646731474437643 1.990113131804180 0.173546030901602 29
2.661664740806042 1.986835839935797 0.174069390464031 29
2.657694763311606 1.968745015988451 0.173336687076630 28
2.657773457322334 1.955186849134159 0.172917999426686 31
2.661356254629626 1.943541768582301 0.172708655601715 30
2.661656087519055 1.929550994069847 0.172289967951771 30
2.665133007440563 1.917915094953620 0.172080624126799 32
2.668561164571939 1.906278461806109 0.171871280301828 31
2.655976896056670 1.882625075584916 0.170615217351997 32
2.659265392019937 1.871043936702862 0.170405873527025 31
2.662505438592127 1.859462807034527 0.170196529702053 31
2.662414197831953 1.845606166962759 0.169777842052110 32
2.664909181258422 1.834967460216545 0.169568498227138 32
2.661404480527991 1.818892330436047 0.168940466752223 32
2.662778765752996 1.806227661363073 0.168626451014765 33
2.664097123880878 1.793575601601632 0.168312435277307 32
2.669303256413129 1.782223968429914 0.168207763364821 33
2.670513390928368 1.769585804186931 0.167893747627364 32
2.659375858251713 1.750207448740820 0.166847028502505 32
2.662124642839793 1.738729498234391 0.166637684677533 32
2.668177722849167 1.729426356147247 0.166637684677533 32
2.672518519158560 1.719021675376415 0.166533012765047 34
2.675135674518200 1.707533179786082 0.166323668940075 34
2.662814052965232 1.685964245748794 0.165172277902731 32
2.664715897532171 1.675464238896124 0.164962934077759 32
2.667159104324763 1.664038030429697 0.164753590252787 32
2.669843446417283 1.652149255542666 0.164544246427815 31
2.677009340625897 1.644331999290614 0.164648918340301 33
2.667383428061088 1.625622867718888 0.163706871127928 32
2.669623448370560 1.614235175702692 0.163497527302957 31
2.675241916411512 1.604906616361426 0.163497527302957 31
2.680827787473968 1.595558501739516 0.163497527302957 32
2.686657795124208 1.585722059651107 0.163497527302957 32
2.678388273417283 1.568260798391365 0.162660152003069 33
2.683846207534696 1.558901924192785 0.162660152003069 33
2.675427056616396 1.541547097452749 0.161822776703182 33
2.689730093373548 1.536684664087056 0.162346136265612 33
2.693340098341693 1.526301681159171 0.162241464353126 32
2.686200425750236 1.510509249501825 0.161508760965725 33
2.680990914663564 1.495286295787510 0.160880729490809 34
2.687682239421682 1.487354658590974 0.160985401403295 33
2.694608584556671 1.478924800087080 0.161090073315781 34
2.692993443266825 1.465220468171977 0.160671385665838 36
2.687545324104516 1.450120772785244 0.160043354190922 36
2.685546759711812 1.436961574723928 0.159624666540979 36
2.688782037720693 1.426642395607351 0.159519994628493 32
2.689963396051581 1.415857706283794 0.159310650803521 11
nan nan nan 0
1.341021964480001 0.693932433861253 0.079131965839331 9
nan nan nan 0
1.319130755931162 0.670971089107342 0.077561887152043 60
1.326698112378621 0.669291761760256 0.077875902889500 48
1.325453642587369 0.662869932154831 0.077666559064529 48
1.300917917722352 0.644932474777891 0.076096480377240 56
1.290834900791074 0.633770904994482 0.075363776989839 63
1.298426973680775 0.631883110793530 0.075677792727297 76
1.293320129363466 0.624101842719780 0.075259105077353 84
1.299094362459705 0.621306969738542 0.075468448902325 86
1.290426460471050 0.611635890081221 0.074840417427410 84
1.285322537309852 0.603731216039303 0.074421729777466 81
1.298286443612658 0.604297810411022 0.075049761252381 82
1.300387927014485 0.599762263410203 0.075049761252381 82
1.309739805854192 0.598540018863652 0.075468448902325 84
1.289987759797250 0.584078848567991 0.074212385952494 86
1.295663339023013 0.581207293526730 0.074421729777466 86
1.301334544738620 0.578303212443850 0.074631073602438 94
1.305173245222995 0.574561892485400 0.074735745514924 94
1.309001660497223 0.570800810033416 0.074840417427410 89
1.303651964002080 0.563060354571736 0.074421729777466 89
1.301936868655978 0.556935285114441 0.074212385952494 89
1.311132154232906 0.555732558871195 0.074631073602438 87
1.320527166958823 0.554014020273553 0.075049761252381 91
1.320512791340759 0.548865376471565 0.074945089339896 99
1.309491950580888 0.538931677613313 0.074212385952494 87
1.315157897948438 0.535635239319424 0.074421729777466 76
1.324335768659587 0.534259940261396 0.074840417427410 76
1.337321504651157 0.534078371044778 0.075468448902325 71
1.346607195593841 0.532344064755856 0.075887136552269 66
1.350317160156961 0.528368064924343 0.075991808464754 60
1.354015752382125 0.524372642283390 0.076096480377240 68
1.359658781950946 0.520835307805154 0.076305824202212 73
1.368938887944250 0.518917787664876 0.076724511852156 74
1.381962170202419 0.518344619119609 0.077352543327071 69
1.385635591723617 0.514212394595923 0.077457215239557 48
1.391082711866861 0.510991970923433 0.077666559064529 45
1.400366599857159 0.508861553126229 0.078085246714472 53
1.400254790014295 0.503294697960919 0.077980574801986 58
1.405766852205217 0.499741827212958 0.078189918626958 60
1.411271126531943 0.496156591273616 0.078399262451930 56
1.420540470005970 0.493850689801032 0.078817950101873 46
1.439254748023618 0.494732365142915 0.079759997314246 42
1.442863958396279 0.490348072465189 0.079864669226732 55
1.459798549144587 0.490142199697783 0.080702044526619 52
1.450127025814797 0.481268907613330 0.080074013051704 52
1.451631818108145 0.476710831731183 0.080074013051704 55
1.483766566732634 0.481246210466021 0.081748763651478 28
1.525293381940972 0.489130883694725 0.083946873813682 23
1.547935248087475 0.490439346961184 0.085098264851027 31
1.557347111432101 0.487147642249286 0.085516952500970 35
1.568494710488759 0.484930312383971 0.086040312063400 45
1.573998261493275 0.480618840324935 0.086249655888371 46
1.581402994306685 0.476851444741973 0.086563671625829 48
1.586886317051957 0.472468264058922 0.086773015450801 35
1.621101190645833 0.476501201905579 0.088552437963061 23
1.636264493613852 0.474449860862697 0.089285141350462 23
1.651351900407551 0.472581938555761 0.090017844737863 27
1.689511037356231 0.477128115048722 0.092006611075095 38
1.696938130610300 0.472835999841128 0.092320626812553 22
4.215632533082369 1.158804231960449 0.229126816431608 60
4.211941184161881 1.141991266599794 0.228708128781665 50
4.215901817005751 1.127281890742863 0.228708128781665 55
4.223673607721165 1.113577139750572 0.228917472606636 56
4.219802868246601 1.096817240205072 0.228498784956693 56
4.211997138564345 1.079106586224648 0.227870753481777 55
4.211865282998201 1.063419541116094 0.227661409656806 55
4.211675280466579 1.047746577019264 0.227452065831834 56
4.223066363298140 1.034940293392554 0.227870753481777 56
4.222770243611921 1.019255489177660 0.227661409656806 56
4.218354810808936 1.003397944695932 0.227242722006862 56
4.208391019453600 0.984744758222811 0.226510018619461 53
4.217472090069672 0.972129634833443 0.226824034356919 56
4.220839761472052 0.957401987367166 0.226824034356919 55
4.228219237534903 0.942794741463424 0.227033378181890 55
4.213765054982428 0.924914467109994 0.226091330969517 55
4.215015637306339 0.909778658351183 0.225986659057031 56
4.220119437148651 0.895474536913574 0.226091330969517 53
4.223065734074287 0.881475192928330 0.226091330969517 53
4.226116928342341 0.866728572298576 0.226091330969517 55
4.215707331670581 0.847738864670730 0.225358627582116 56
4.212762535700935 0.831857403930698 0.225044611844658 53
4.219562120468479 0.817907187254607 0.225253955669630 55
4.218467286717227 0.802426740317323 0.225044611844658 55
4.228958253784102 0.789900239481115 0.225463299494602 53
4.217937746491734 0.772614603727847 0.224730596107201 56
4.212745709857606 0.756474554628642 0.224311908457257 56
4.223228781982794 0.743149254326097 0.224730596107201 56
4.225797127624160 0.728402907281885 0.224730596107201 55
4.228313983261107 0.713647684878118 0.224730596107201 55
4.226838210338115 0.698232734050262 0.224521252282229 56
4.221363033261348 0.682199517692430 0.224102564632285 55
4.223718635985056 0.667460054653286 0.224102564632285 56
4.222075064759648 0.652102732099283 0.223893220807314 56
4.228164010435925 0.638694873456511 0.224102564632285 55
4.214669065496701 0.620864980150704 0.223265189332398 52
4.216704754283970 0.606885220145725 0.223265189332398 52
4.218797489428191 0.592162476375159 0.223265189332398 54
4.228855034982829 0.577777306822036 0.223683876982342 56
4.230747761897044 0.563750741357654 0.223683876982342 56
4.224767167699412 0.547951671191408 0.223265189332398 52
4.218727922270157 0.532201235009854 0.222846501682455 52
4.228489606350954 0.518444118699712 0.223265189332398 54
4.230273552641895 0.503680776932058 0.223265189332398 52
4.228123015494173 0.487714932756251 0.223055845507427 54
4.221860140814297 0.472065299873472 0.222637157857483 54
4.219510930799180 0.456895362649865 0.222427814032511 55
4.229025649054713 0.442996045496175 0.222846501682455 52
4.230546229156396 0.428231292245777 0.222846501682455 54
4.235990851111534 0.413849730076455 0.223055845507427 54
4.221501963936630 0.397562724582920 0.222218470207540 54
4.226842202415034 0.383185155542242 0.222427814032511 54
4.232133455926042 0.368775144461552 0.222637157857483 54
4.227423999947633 0.353500700345330 0.222323142120025 42
4.232613955647267 0.339061049309897 0.222532485944997 31
4.245720269150782 0.325199599610903 0.223160517419912 25
4.422120837660387 0.323188359004152 0.232371645718671 8
3.315424083509392 0.230674104487635 0.174174062376517 7
3.365993074679187 0.222978951844119 0.176790860188664 1
nan nan nan 0
nan nan nan 0
3.348201859590054 0.186607353337020 0.175744141063805 1
3.326923179633615 0.173192172036589 0.174592750026461 5
3.335458779478057 0.162547614824666 0.175011437676404 5
nan nan nan 0
4.527838739349591 0.188981030702295 0.237500569430479 5
3.311010504635330 0.127196193365476 0.173650702814088 1
3.331394754331140 0.116334868302016 0.174697421938946 1
4.533562012557667 0.141680892974901 0.237709913255451 1
nan nan nan 0
3.468232776340996 0.083550428884758 0.181815111987987 2
3.204921003929266 0.066014313638297 0.167998419539850 1
4.595020889817383 0.078601944119551 0.240850070630028 5
4.595267267365142 0.062561849077584 0.240850070630028 3
nan nan nan 0
4.579603441959303 0.031972182829301 0.240012695330140 5
3.165636338914613 0.011050200288119 0.165904981290132 1
3.233562433535310 0.000000000000000 0.169463826314652 1
3.257507662173532 -0.011939442627304 0.170719889264483 2
3.285407050961815 -0.023510281118080 0.172185296039285 2
3.233379176119527 -0.034425499377736 0.169463826314652 1
nan nan nan 0
3.181149119505319 -0.055527164427307 0.166742356590019 1
nan nan nan 0
4.590308281922058 -0.112986359886895 0.240640726805056 5
3.232285909002834 -0.090850503754924 0.169463826314652 1
4.569470139296037 -0.143601384274666 0.239594007680197 7
4.596885631650459 -0.160526783522792 0.241059414454999 7
3.131368638317492 -0.120842386144281 0.164230230690358 1
4.579655301837460 -0.192745138087058 0.240222039155112 5
4.598906466794413 -0.209639442745323 0.241268758279971 7
3.157859513816039 -0.154997570066569 0.165695637465160 1
3.113420152898627 -0.163712327978190 0.163392855390471 1
4.624376762204337 -0.259352436463768 0.242734165054773 1
3.215908345933844 -0.191060160509416 0.168835794839737 2
3.099609388871988 -0.195010893317169 0.162764823915555 1
3.086916749343657 -0.205573935990551 0.162136792440640 1
3.090165094840288 -0.216627372855648 0.162346136265612 2
3.073494578729925 -0.225703333269741 0.161508760965725 3
3.056757021072160 -0.235204634210882 0.160671385665838 6
nan nan nan 0
nan nan nan 0
nan nan nan 0
3.025328543071302 -0.275326465788201 0.159205978891035 100
3.044182723859329 -0.288296057092396 0.160252698015894 94
3.039182450807960 -0.298529990922594 0.160043354190922 58
3.028240606632892 -0.307597463665388 0.159519994628493 31
nan nan nan 0
3.294072291533993 -0.357850767164413 0.173650702814088 1
3.411891810003333 -0.382704985270426 0.179931017563241 1
nan nan nan 0
4.623053172347369 -0.549629087919467 0.243990228004604 78
4.605049699000930 -0.565429005227882 0.243152852704717 56
4.624844538842096 -0.584253736001800 0.244304243742062 68
4.628928373628559 -0.599549846923235 0.244618259479519 68
4.618888127839851 -0.614650332805843 0.244199571829576 65
4.612646642796627 -0.631033848010755 0.243990228004604 65
4.626238784703487 -0.649352101379042 0.244827603304491 68
4.625688144162368 -0.667395964561323 0.244932275216977 68
4.625306098405447 -0.683830673920711 0.245036947129463 68
4.614991902974750 -0.698775817130724 0.244618259479519 68
4.608577214592623 -0.714269094309887 0.244408915654548 70
4.617891562748007 -0.732228385985035 0.245036947129463 68
4.621222008207468 -0.749302379469870 0.245350962866921 68
4.618845204431206 -0.763816655044336 0.245350962866921 68
4.614181499526666 -0.779602043480479 0.245246290954435 70
4.609185979917975 -0.796973142044993 0.245141619041949 68
4.616210222027955 -0.814793166596237 0.245664978604378 68
4.619234835109660 -0.831963864871551 0.245978994341836 68
4.618266981391930 -0.848443821232674 0.246083666254322 68
4.611501694409877 -0.863019084391964 0.245874322429350 68
4.614193047090795 -0.881039060615153 0.246188338166808 66
4.619401431842851 -0.896247391240850 0.246607025816751 66
4.612326087890382 -0.911592146343354 0.246397681991780 66
4.622659426103088 -0.931252061948114 0.247130385379181 68
4.609762837935566 -0.944571623968265 0.246607025816751 66
4.613922177320388 -0.963898562358795 0.247025713466695 68
4.612483048013611 -0.980413537447036 0.247130385379181 68
4.614889123565088 -0.997774346010502 0.247444401116638 66
4.619180795911675 -1.015592764796925 0.247863088766582 66
4.604092163418403 -1.028292846029396 0.247235057291667 68
4.608265514200634 -1.046126461402043 0.247653744941610 66
4.608292455114847 -1.063908143289944 0.247863088766582 66
4.618162072409689 -1.083180135102180 0.248595792153983 68
4.616295818159781 -1.099756790574006 0.248700464066469 66
4.608546310661269 -1.114924690574004 0.248491120241497 68
4.612187046951969 -1.133715374979063 0.248909807891441 68
4.612077237909920 -1.150775043091088 0.249119151716413 68
4.618120812760605 -1.167706630669590 0.249642511278842 68
4.619820415276888 -1.185308848019293 0.249956527016300 66
4.611789062229810 -1.200421588436952 0.249747183191328 68
4.605639626518819 -1.216002568748105 0.249642511278842 68
4.620443860284357 -1.238044201036533 0.250689230403701 70
4.616094130216743 -1.254165017347452 0.250689230403701 70
4.619612351613734 -1.271585834424321 0.251107918053644 70
4.614920727504051 -1.288509019116375 0.251107918053644 70
4.614921502494099 -1.303281688546053 0.251317261878616 74
4.616104614627618 -1.321031372427963 0.251631277616074 72
4.612682431831093 -1.340108128022419 0.251735949528560 72
4.635038468028075 -1.363287010524964 0.253201356303362 72
4.613024407950548 -1.374325671967685 0.252259309090989 70
4.613935359293214 -1.392150572261820 0.252573324828447 72
4.615269909147000 -1.408387609539270 0.252887340565905 70
4.617958590546764 -1.426847753639066 0.253306028215848 72
4.623881675764983 -1.448150455530704 0.253934059690763 72
4.614990768899264 -1.463074834563633 0.253724715865792 72
4.613659079749534 -1.480395686691111 0.253934059690763 72
4.616061882233968 -1.498958765045535 0.254352747340707 70
4.622451122760054 -1.517996844571454 0.254980778815622 70
4.624705648041079 -1.536642047292096 0.255399466465566 68
4.619313591014580 -1.552775920858219 0.255399466465566 70
4.610083392348177 -1.567604898213264 0.255190122640594 70
4.615638222200688 -1.588390655281315 0.255818154115509 68
4.623269536228187 -1.609088081149980 0.256550857502911 65
4.623276531400360 -1.627205749466818 0.256864873240368 68
4.615686707068230 -1.642664427449410 0.256760201327882 68
4.606166016416280 -1.657413734324141 0.256550857502911 65
4.615367930917426 -1.678944358778353 0.257388232802798 65
4.619148245530933 -1.697685217091831 0.257911592365227 72
4.627871823698133 -1.720170734303184 0.258748967665114 74
4.616835155980898 -1.732595890021960 0.258434951927657 72
4.614494060669984 -1.750117622423152 0.258644295752628 69
4.617372822785233 -1.770594347060564 0.259167655315058 74
4.622650752974463 -1.790224068978505 0.259795686789973 76
4.629076901895026 -1.812251636570797 0.260528390177374 76
4.615293717021977 -1.825460722192771 0.260109702527431 69
4.618166979689958 -1.845265334483632 0.260633062089860 74
4.619106015849613 -1.864364663444281 0.261051749739804 74
4.623666827911102 -1.885000996439496 0.261679781214719 76
4.626292895109714 -1.904931379767781 0.262203140777149 76
4.619615258733544 -1.921068550115484 0.262203140777149 76
4.618405742586307 -1.939502291666939 0.262517156514606 74
4.630337677922101 -1.962601098510053 0.263563875639465 74
4.619786385797562 -1.977180350947344 0.263354531814493 74
4.627523863654035 -1.999632348089944 0.264191907114380 72
4.624176916092575 -2.017370523027008 0.264401250939352 74
4.627717980145973 -2.039137507795061 0.265029282414268 72
4.626046479495305 -2.057713999484635 0.265343298151725 76
4.628308261434761 -2.077132051038315 0.265866657714155 78
4.626487429145619 -2.095747579513910 0.266180673451612 76
4.622407595406207 -2.114352000170828 0.266390017276584 76
4.625879123054288 -2.135497061700492 0.267018048751499 73
4.626014417580403 -2.154197809014109 0.267436736401443 73
4.628932640484065 -2.176237094179910 0.268064767876358 71
4.629292127424118 -2.194190290990675 0.268483455526302 76
4.625208361212294 -2.212059627349287 0.268692799351274 73
4.617069690747743 -2.228997005461271 0.268692799351274 73
4.627610037752323 -2.253038377539585 0.269739518476132 73
4.622906194290627 -2.271746009247445 0.269948862301104 76
4.631053055110658 -2.295853156430787 0.270890909513477 78
4.626987231698906 -2.312983746232367 0.271100253338449 76
4.617101869154346 -2.328221579811304 0.270995581425963 73
4.624557906753171 -2.353280708546536 0.271937628638336 76
4.630530231251539 -2.376705193054465 0.272775003938223 82
4.636395197903521 -2.400199957250401 0.273612379238110 82
4.622677302846823 -2.413596187901506 0.273298363500653 80
4.624827466142940 -2.435301057065751 0.273926394975568 80
4.623354366236785 -2.455176812337241 0.274345082625512 77
4.628841514742374 -2.478843449322216 0.275182457925399 77
4.637734368253354 -2.504476266860559 0.276229177050258 77
4.630717919781294 -2.521604876132229 0.276333848962743 75
4.623638379257875 -2.538715006067030 0.276438520875229 77
4.633969279227018 -2.565480181171667 0.277589911912574 52
nan nan nan 0
nan nan nan 0
2.249574209379961 -1.276378486050466 0.135550126669225 1
2.245329216869154 -1.283831324993166 0.135550126669225 1
2.247529457338325 -1.296043139686767 0.135968814319168 1
2.208681632692228 -1.283419973777196 0.133875376069450 1
2.200741468066790 -1.289102937144760 0.133666032244479 2
2.175366004606336 -1.284970951436047 0.132409969294648 3
2.165944089495612 -1.289113206911185 0.132095953557190 7
2.156292940308639 -1.293583501919996 0.131781937819733 8
2.141509718827344 -1.294901840688523 0.131153906344817 10
2.136976621074516 -1.302369215634122 0.131153906344817 12
2.111995290347577 -1.297276548709251 0.129897843394987 13
2.095340301152508 -1.297647636676820 0.129165140007585 14
2.058605711974432 -1.284861351510855 0.127176373670354 10
1.996626950948889 -1.255883563614095 0.123617528645833 11
1.980422623013294 -1.255360328343361 0.122884825258432 15
1.967612737863653 -1.256889726869238 0.122361465696003 16
1.961533991049359 -1.262669267200143 0.122256793783517 17
1.963816949374712 -1.273856238201026 0.122675481433460 17
1.966045627073209 -1.285074479477348 0.123094169083404 17
1.963215885110028 -1.293028009761938 0.123198840995890 16
1.955362138494410 -1.297664244297505 0.122989497170918 16
1.957461623401819 -1.308922615294096 0.123408184820862 16
1.967788191596223 -1.325791330793706 0.124350232033235 15
1.973063218316341 -1.339382682498789 0.124978263508150 14
1.976618659749501 -1.351899410657737 0.125501623070579 10
1.977296812267052 -1.361500547642152 0.125815638808037 4
2.046131320782199 -1.419980849907330 0.130525874869902 1
2.846496439764166 -1.990178161847810 0.182024455812959 18
2.824836399027969 -1.989750858781598 0.181082408600586 16
2.819502491213443 -2.000755093432562 0.181187080513072 19
2.794977390246923 -1.997320339485756 0.180035689475727 19
2.770158254761882 -1.994228585530458 0.178884298438382 18
2.761563380788579 -2.002713543926544 0.178779626525896 19
2.744879356070975 -2.005271884258137 0.178151595050981 19
2.726602622370819 -2.006554429005464 0.177418891663580 19
2.705141571418567 -2.005355081265068 0.176476844451207 19
2.680521669329808 -2.001640468625313 0.175325453413862 18
2.661995840346847 -2.003045560543813 0.174592750026461 19
2.650212531023002 -2.008706166462202 0.174278734289003 18
2.636834698744555 -2.013096981190766 0.173860046639059 19
2.607626001774735 -2.005243806377266 0.172394639864257 18
2.587978520198152 -2.004549646171971 0.171557264564370 19
2.580965569288080 -2.013571164653648 0.171557264564370 19
2.565201908593862 -2.014268692459340 0.170929233089455 19
2.558155170644023 -2.023210646517732 0.170929233089455 18
2.533188308351388 -2.019323767695504 0.169777842052110 19
2.510549988491576 -2.015649910932118 0.168731122927251 19
2.503498762147720 -2.024401085773406 0.168731122927251 19
2.487125156654576 -2.025560121492354 0.168103091452336 19
2.474216662794158 -2.028731092647120 0.167684403802392 19
2.451366343001790 -2.025065661760957 0.166637684677533 19
2.435424046893020 -2.025520798920311 0.166009653202618 20
2.417621059640670 -2.025032331060840 0.165276949815217 19
2.408656308254197 -2.032591672550019 0.165172277902731 19
2.401902747761311 -2.040567888826316 0.165172277902731 20
2.378071656313865 -2.034656812857765 0.164020886865386 18
2.355824355246203 -2.029908132866631 0.162974167740527 19
2.342690327262793 -2.032883111849244 0.162555480090584 18
2.326556478582726 -2.033162672623508 0.161927448615668 18
2.319088937835400 -2.041676272035872 0.161927448615668 18
2.297003309985610 -2.036509068183507 0.160880729490809 19
2.279451708568290 -2.035203311229688 0.160148026103408 19
2.270848450666779 -2.041812292764349 0.160043354190922 19
2.262584322307726 -2.047991162666071 0.159938682278436 19
2.256897775950989 -2.057222047734955 0.160043354190922 19
2.227632644468962 -2.044828360094648 0.158473275503634 19
2.210214863916116 -2.043101604725694 0.157740572116233 18
2.201607752085188 -2.049443394906374 0.157635900203747 19
2.188611919567761 -2.051652166816473 0.157217212553803 19
2.177079918708225 -2.055166274145768 0.156903196816346 17
2.159759864512628 -2.053120577224473 0.156170493428944 17
2.143923490419668 -2.052360253404852 0.155542461954029 17
2.136746354680997 -2.059831439289815 0.155542461954029 17
2.120229775459635 -2.056799367441299 0.154809758566628 17
2.109820088511881 -2.061764755221464 0.154600414741656 17
2.088374650019345 -2.055107925078146 0.153553695616797 16
2.069838904966392 -2.051138374902188 0.152716320316910 16
2.062307204298941 -2.058710936631354 0.152716320316910 17
2.049833652032388 -2.059875586068149 0.152297632666967 16
2.040183351891111 -2.063820981350724 0.152088288841995 16
2.018975329740030 -2.056677189575097 0.151041569717136 16
2.006207215799441 -2.057991582750529 0.150622882067192 16
1.996232928138481 -2.062111991170490 0.150413538242221 16
1.993834877016590 -2.075523096191574 0.150832225892164 16
1.978306138960370 -2.073799296106346 0.150204194417249 16
1.959414781546973 -2.066958762352800 0.149262147204876 17
1.946711828951364 -2.067968732734747 0.148843459554932 17
1.937755612652218 -2.073630622527909 0.148738787642446 17
1.930505485514728 -2.080382018632203 0.148738787642446 16
1.920524964790812 -2.084170545789024 0.148529443817475 17
1.901103448567085 -2.077600452014214 0.147587396605102 17
1.884437646434750 -2.073876673232860 0.146854693217700 16
