# This PCD file was generated using the MATLAB® pcwrite function
# from Computer Vision Toolbox®.
# .PCD v.7 - Point Cloud Data file format
VERSION .7
FIELDS x y z intensity
SIZE 8 8 8 1
TYPE F F F U
COUNT 1 1 1 1
WIDTH 842
HEIGHT 1
VIEWPOINT 0 0 0 1 0 0 0
POINTS 842
DATA ascii
-4.063129256812087 -2.596481636061515 1.292024673151783 4
-4.082408494919265 -2.587777784933520 1.295130501693014 3
-4.106867072485746 -2.585231297197268 1.300306882595064 3
-4.103205550921857 -2.561976284658748 1.296165777873424 5
-4.095258367093518 -2.538178339608554 1.290989396971373 4
-4.111116802028508 -2.527198173375394 1.293059949332194 4
-4.126071125510332 -2.517576225422839 1.295130501693014 5
-4.138576361806771 -2.504436857611709 1.296165777873424 5
-4.149735686391674 -2.493412753326062 1.297201054053834 5
-4.148457740959624 -2.472977136727645 1.294095225512604 4
-4.146659693554105 -2.453304661627103 1.290989396971373 4
-4.168953639987641 -2.445910573021469 1.295130501693014 5
-4.183294354668832 -2.436690741057944 1.297201054053834 5
-4.191774506591796 -2.422073473544670 1.297201054053834 5
-4.194338101102732 -2.402120079684265 1.295130501693014 5
-4.193034728356070 -2.381007352102669 1.292024673151783 4
-4.216908099464614 -2.378045312022326 1.297201054053834 7
-4.225183335851283 -2.363311067931231 1.297201054053834 5
-4.230437980115494 -2.345935372653331 1.296165777873424 5
-4.235215585371179 -2.329292151923728 1.295130501693014 5
-4.256888301413692 -2.321894761192234 1.299271606414654 3
-4.271764052852634 -2.310697830212691 1.301342158775474 1
-4.266184763066492 -2.288466952512300 1.297201054053834 5
-4.277955206142249 -2.274629131331160 1.298236330234244 5
-4.277851697468291 -2.258318651284057 1.296165777873424 5
-4.279253310302350 -2.239041905273740 1.294095225512604 4
-4.300372007119619 -2.231958563961685 1.298236330234244 5
-4.308523659435785 -2.216181920994302 1.298236330234244 5
-4.323117273697487 -2.204639437398850 1.300306882595064 5
-4.317375112921541 -2.181808976651141 1.296165777873424 5
-4.313846630195113 -2.163039347443153 1.293059949332194 4
-4.345966742677007 -2.159247804820306 1.300306882595064 5
-4.342705631409296 -2.139701199767766 1.297201054053834 5
-4.364035270034533 -2.131311508833990 1.301342158775474 5
-4.360646789392178 -2.111776031927536 1.298236330234244 5
-4.357906929715768 -2.090765452058097 1.295130501693014 5
-4.368667864569089 -2.077199885747913 1.296165777873424 5
-4.393367637018391 -2.070172309686572 1.301342158775474 5
-4.393207292399567 -2.052321363425318 1.299271606414654 5
-4.397193384106305 -2.034583194079728 1.298236330234244 5
-4.400404233012342 -2.018379550889449 1.297201054053834 5
-4.414457876311237 -2.006204114998867 1.299271606414654 5
-4.428827994391379 -1.993182174787050 1.301342158775474 5
-4.442816207194351 -1.980857252186423 1.303412711136295 5
-4.435566358913004 -1.959092741154418 1.299271606414654 5
-4.431758615864099 -1.938951739209647 1.296165777873424 5
-4.444580731194258 -1.928870279401038 1.298236330234244 5
-4.458720414063444 -1.915617467108145 1.300306882595064 5
-4.472158264490703 -1.903848070163488 1.302377434955884 5
-4.500469164414571 -1.896446120603451 1.308589092038345 1
nan nan nan 0
nan nan nan 0
-4.530486033124059 -1.854393900710843 1.311694920579575 1
-4.512184603895588 -1.827622923021324 1.304447987316705 5
-4.503876853530488 -1.806895486548188 1.300306882595064 5
-4.510469204883885 -1.790375816098408 1.300306882595064 5
-4.523262765653456 -1.779025286433776 1.302377434955884 5
-4.533045678372770 -1.764626924376452 1.303412711136295 5
-4.528361608639055 -1.744625791532332 1.300306882595064 5
-4.527504665109300 -1.725265179116951 1.298236330234244 5
-4.554890913588410 -1.718424922332991 1.304447987316705 3
-4.571720780273765 -1.706568523631088 1.307553815857935 1
-4.555903407971831 -1.682568489846477 1.301342158775474 5
-4.565669036310465 -1.667184233308846 1.302377434955884 5
-4.556637785083518 -1.646781869711072 1.298236330234244 5
-4.573273098883776 -1.634767796605859 1.301342158775474 5
-4.590163064271452 -1.621856495434636 1.304447987316705 5
-4.581206605145653 -1.600726101506986 1.300306882595064 5
-4.597444606276999 -1.589312554742736 1.303412711136295 5
-4.588340141503545 -1.568256368911639 1.299271606414654 5
-4.589855267115458 -1.551794785979259 1.298236330234244 5
-4.606506098127456 -1.538633859535190 1.301342158775474 5
-4.618920506960080 -1.525773461176980 1.303412711136295 5
-4.624481721856486 -1.508834022900998 1.303412711136295 5
-4.629459768813687 -1.493490392799320 1.303412711136295 5
-4.620176926049981 -1.471821478563227 1.299271606414654 5
-4.636088112661103 -1.459973982151788 1.302377434955884 5
-4.641408045099412 -1.442972063417789 1.302377434955884 5
-4.664634077730012 -1.433246642945742 1.307553815857935 5
-4.655066132236496 -1.411655272704030 1.303412711136295 5
-4.663422883954589 -1.397319739284484 1.304447987316705 5
-4.686796917915586 -1.386513131702904 1.309624368218755 5
-4.680243215285454 -1.367712232618170 1.306518539677525 5
-4.692649773681785 -1.352689428421231 1.308589092038345 5
-4.678529312881086 -1.331831360556125 1.303412711136295 5
-4.686869506406535 -1.316537002253247 1.304447987316705 5
-4.710053335747465 -1.305328153600394 1.309624368218755 3
-4.711078846738579 -1.287037951270497 1.308589092038345 3
-4.707859964461693 -1.269396652153162 1.306518539677525 3
-4.708528339997395 -1.251962587368453 1.305483263497115 3
-4.720560541245721 -1.236654840717191 1.307553815857935 3
-4.736071431028382 -1.223067740045592 1.310659644399165 5
-4.729078913856972 -1.203669242420328 1.307553815857935 5
-4.748242196606804 -1.190914135313010 1.311694920579575 5
-4.751960125934293 -1.175991240127359 1.311694920579575 5
-4.741222682504463 -1.154908868067321 1.307553815857935 5
-4.756097906961945 -1.142716060942376 1.310659644399165 5
-4.764014299334735 -1.126165259213726 1.311694920579575 5
-4.752670598681635 -1.106855545707073 1.307553815857935 5
-4.760461692336660 -1.090291274840553 1.308589092038345 1
-4.760469340714746 -1.072818099563142 1.307553815857935 5
-4.775686232482933 -1.057869701530594 1.310659644399165 5
-4.782760926153500 -1.043684990111985 1.311694920579575 5
-4.775220505018550 -1.023718572972402 1.308589092038345 5
-4.771203520626919 -1.005450282329365 1.306518539677525 5
-4.778467555683153 -0.989573058403887 1.307553815857935 5
-4.792910412860397 -0.976871061521342 1.310659644399165 5
-4.796458631233943 -0.959297605232530 1.310659644399165 5
-4.803404567998916 -0.944131871855243 1.311694920579575 5
-4.791495971820804 -0.924431376934151 1.307553815857935 5
-4.783462801496285 -0.904709387088863 1.304447987316705 5
-4.790545602805298 -0.887875146724897 1.305483263497115 5
-4.804714895359225 -0.874897343984684 1.308589092038345 5
-4.819150359375410 -0.860157107194730 1.311694920579575 5
-4.799580571009036 -0.837660904615647 1.305483263497115 5
-4.821517641301021 -0.824157103449634 1.310659644399165 5
-4.816602927239994 -0.806887123147585 1.308589092038345 7
-4.830828570500943 -0.791944289554235 1.311694920579575 5
-4.833563540895246 -0.775076726172291 1.311694920579575 5
-4.828737505399695 -0.756160114072384 1.309624368218755 5
-4.834778760156214 -0.742416080702593 1.310659644399165 5
-4.833646312567201 -0.724118318490237 1.309624368218755 5
-4.839843939917034 -0.708645139538694 1.310659644399165 5
-4.842408745897917 -0.690901464895555 1.310659644399165 5
-4.829366208080906 -0.672707465192089 1.306518539677525 5
-4.843285418653849 -0.656559492828058 1.309624368218755 5
-4.856927170977357 -0.642013930017391 1.312730196759985 5
-4.840086575460452 -0.621746701384794 1.307553815857935 5
-4.853623226222361 -0.607131677989462 1.310659644399165 5
-4.848041988825747 -0.589253309520414 1.308589092038345 5
-4.849969367036286 -0.573173383024640 1.308589092038345 5
-4.867392125489223 -0.557151081162003 1.312730196759985 5
-4.880733162376118 -0.542287149212964 1.315836025301216 5
-4.878754823453251 -0.524833652449051 1.314800749120805 5
-4.869028236673882 -0.506600893996612 1.311694920579575 5
-4.886229909612845 -0.490294630731719 1.315836025301216 3
-4.891591691483291 -0.475315368093364 1.316871301481626 1
-4.873986691019853 -0.456436382299978 1.311694920579575 5
-4.894944480846142 -0.439445678972935 1.316871301481626 5
-4.877201564424190 -0.420696250641700 1.311694920579575 7
-4.882420316163828 -0.404839828605333 1.312730196759985 7
-4.872248984833616 -0.386877039840081 1.309624368218755 5
-4.877357699273613 -0.371011010456380 1.310659644399165 5
-4.894099248157354 -0.354247850095094 1.314800749120805 5
-4.883624561163957 -0.338070378651974 1.311694920579575 5
-4.869409125403197 -0.319157935943049 1.307553815857935 5
-4.878206107222875 -0.302637059232798 1.309624368218755 5
-4.890853982622669 -0.285430816798861 1.312730196759985 5
-4.895584381639594 -0.270277347101408 1.313765472940395 5
-4.877249198809808 -0.251338100787262 1.308589092038345 5
-4.885774292015203 -0.235535271300928 1.310659644399165 7
-4.882744877765338 -0.217454530474725 1.309624368218755 5
-4.885369349083181 -0.201341119355465 1.310142006308960 7
-4.899555750538379 -0.184796454175936 1.313765472940395 5
-4.892418778813574 -0.168282286762584 1.311694920579575 5
-4.893002702797074 -0.150349545214732 1.311694920579575 5
-4.885749870741954 -0.133911219517312 1.309624368218755 5
-4.901637937860921 -0.117225458976441 1.313765472940395 5
-4.900085819735088 -0.100075389044479 1.313247834850190 7
-4.894624959975338 -0.082017903607483 1.311694920579575 5
-4.887131781844590 -0.066535412016056 1.309624368218755 5
-4.902788281069999 -0.049632178195008 1.313765472940395 5
-4.902925910110072 -0.033373673472024 1.313765472940395 5
-4.914603581851749 -0.016297502386952 1.316871301481626 5
-4.903039419565749 0.000855741820953 1.313765472940395 5
-4.914597593535565 0.018013021637884 1.316871301481626 5
-4.910653137706778 0.033426271854169 1.315836025301216 5
-4.925951606212038 0.051586330298548 1.319977130022856 5
-4.929604852419131 0.068834741684845 1.321012406203266 5
-4.913867037209703 0.086629763696027 1.316871301481626 5
-4.905880166388302 0.100193728093406 1.314800749120805 5
-4.920930316833921 0.118546206381578 1.318941853842446 3
-4.943683663675652 0.135499099590642 1.325153510924906 3
-4.923844634238026 0.153017626769013 1.319977130022856 5
-4.896280198528501 0.168415106247004 1.312730196759985 5
-4.918795480764121 0.187241567492675 1.318941853842446 5
-4.918182971736051 0.202693469821304 1.318941853842446 5
-4.905865934297291 0.219342173830925 1.315836025301216 5
-4.916648063212771 0.237023645843113 1.318941853842446 5
-4.938897385442725 0.256243611726064 1.325153510924906 3
-3.159622247841140 0.173331410569852 0.847891191755858 1
-3.054855168956746 0.178281708915376 0.819938734884786 3
-2.959734126260340 0.183099196923210 0.794574468464739 10
nan nan nan 0
nan nan nan 0
-2.957654466898244 0.214082854289751 0.794574468464739 61
-2.924141852587264 0.221920416023115 0.785774620931253 42
-2.932978341463083 0.232890803034166 0.788362811382278 50
-2.930222287539963 0.242967752025755 0.787845173292073 46
-2.929356319895575 0.253194656357984 0.787845173292073 46
-2.922728249373149 0.262389145581716 0.786292259021458 48
-2.925593848390380 0.273459296008230 0.787327535201868 48
-2.928516659933777 0.283531744465669 0.788362811382278 50
-2.931302124515868 0.294649816156617 0.789398087562688 48
-2.918779828971860 0.303171227839867 0.786292259021458 48
-2.921490585225353 0.314280309202757 0.787327535201868 50
-2.922352404669713 0.324179588872478 0.787845173292073 46
-2.926902439067178 0.335548463764889 0.789398087562688 49
-2.937284867660271 0.346610947856440 0.792503916103919 49
-2.920653166516677 0.355506903653840 0.788362811382278 48
-2.927125855624623 0.366149317650041 0.790433363743098 49
-2.925829922938382 0.376364662953572 0.790433363743098 50
-2.926413532039985 0.386828582439499 0.790951001833303 54
-2.930718832336086 0.398332359657816 0.792503916103919 50
-2.919814910273955 0.406716161601872 0.789915725652893 54
-2.914552545310536 0.416359336467874 0.788880449472483 46
-2.926536459777716 0.427978845916091 0.792503916103919 50
-2.928769146225877 0.439275356040019 0.793539192284329 48
-2.927296353284621 0.448985089234928 0.793539192284329 48
-2.925711268756336 0.459200525022489 0.793539192284329 49
-2.920193809752095 0.469307635187731 0.792503916103919 48
-2.929975600294480 0.481377311372986 0.795609744645149 49
-2.928277429487256 0.491601902133411 0.795609744645149 49
-2.934159827284179 0.503126476862573 0.797680297005969 48
-2.919154483584697 0.510524094537083 0.794056830374534 46
-2.917263711842370 0.521219901484225 0.794056830374534 46
-2.926922839736236 0.532967527585608 0.797162658915764 46
-2.924949756521086 0.543691656233189 0.797162658915764 46
-2.928825138159243 0.554466178622329 0.798715573186379 48
-2.930566859729526 0.565929730259972 0.799750849366789 48
-2.921091728210865 0.574154386159798 0.797680297005969 49
-2.930332948298039 0.587134050494459 0.800786125547199 50
-2.930262764260622 0.597233966522525 0.801303763637404 46
-2.937511649454126 0.609933632023341 0.803891954088429 49
-2.929802300109629 0.618474370897095 0.802339039817814 46
-2.925736781621543 0.628291910180598 0.801821401727609 48
-2.932962625671323 0.640561819363424 0.804409592178635 54
-2.936252668687825 0.652564712363200 0.805962506449250 50
-2.939725860568383 0.663574193293485 0.807515420719865 52
-2.927976927746040 0.671671991792570 0.804927230268839 49
-2.942666989840885 0.685321485940565 0.809585973080685 61
-2.955174451435693 0.699662922008193 0.813727077802325 46
-2.939689267138801 0.706299619026388 0.810103611170890 23
-2.935329102891753 0.716098882772274 0.809585973080685 19
nan nan nan 0
-4.799867189558982 1.207424640940911 1.326188787105316 5
-4.811026230177911 1.226315208847951 1.330329891826957 5
-4.810456916078471 1.244068747284300 1.331365168007367 5
-4.806304985920205 1.260013956960516 1.331365168007367 5
-4.809122101786743 1.279608451735311 1.333435720368187 5
-4.786199948022468 1.290519734320523 1.328259339466136 5
-4.803798390878123 1.314170528952520 1.334470996548597 5
-4.799181813277687 1.330930908227502 1.334470996548597 5
-4.812868336206928 1.353742694320587 1.339647377450647 3
-4.793489168569689 1.365461308974574 1.335506272729007 3
-4.781028348685502 1.380876934672950 1.333435720368187 5
-4.773201384428915 1.393973313953357 1.332400444187777 5
-4.775469729046960 1.413652017409782 1.334470996548597 7
-4.781358585300238 1.434476321086664 1.337576825089827 5
-4.768928511212920 1.448911263826050 1.335506272729007 5
-4.763841813114846 1.465549103619573 1.335506272729007 5
-4.758438309323625 1.482999612900421 1.335506272729007 5
-4.757702506713419 1.498272186771034 1.336541548909417 5
-4.759805997502394 1.517217357030008 1.338612101270237 3
-4.761566918506111 1.537026513382576 1.340682653631057 3
-4.741211409096251 1.549666758465948 1.336541548909417 3
-4.725313433649393 1.560918362188993 1.333435720368187 3
-4.741822837307104 1.584751426464863 1.339647377450647 3
-4.714022849289260 1.594691743261043 1.333435720368187 3
-4.719394451369734 1.614889686764820 1.336541548909417 5
-4.713728682233179 1.631353609224889 1.336541548909417 5
-4.718945846842330 1.651626773414361 1.339647377450647 5
-4.706448306100776 1.663867957196051 1.337576825089827 5
-4.711232364685778 1.685010275395978 1.340682653631057 5
-4.691084035520594 1.695371127429814 1.336541548909417 5
-4.688467525437264 1.713879954927652 1.337576825089827 5
-4.690007167792801 1.732095167749669 1.339647377450647 5
-4.683627219772188 1.749273269188852 1.339647377450647 5
-4.685339073538657 1.766705058235345 1.341717929811468 5
-4.668001674946469 1.779736498763183 1.338612101270237 5
-4.654862938131708 1.792429556564679 1.336541548909417 5
-4.659063628128965 1.813683272552122 1.339647377450647 5
-4.663811155988811 1.833363937976539 1.342753205991877 5
-4.639428662741283 1.842502081496044 1.337576825089827 5
-4.640140643685075 1.861562706682606 1.339647377450647 5
-4.629705916000869 1.877105424231528 1.338612101270237 5
-4.623455754403637 1.892447761341056 1.338612101270237 5
-4.616821711272628 1.908575104274012 1.338612101270237 5
-4.614032976571457 1.925362458136322 1.339647377450647 5
-4.599824707141620 1.939258853415948 1.337576825089827 5
-4.604034318210118 1.959040075903573 1.340682653631057 3
-4.593618006208675 1.973574046527024 1.339647377450647 3
-4.593442286784500 1.993473590194368 1.341717929811468 5
-4.568761120906146 2.001742867636906 1.336541548909417 5
-4.575879891819938 2.023930146494866 1.340682653631057 5
-4.551147074423925 2.032014592089345 1.335506272729007 5
-4.562714600427077 2.053437483173610 1.340682653631057 5
-4.548122736311098 2.066949737604408 1.338612101270237 7
-4.544028051590280 2.085217007999467 1.339647377450647 5
-4.522332092667517 2.095360455656953 1.335506272729007 5
-4.526228708424412 2.114463364867680 1.338612101270237 5
-4.514953864636071 2.129390484901826 1.337576825089827 5
-4.507867726575047 2.144350903347149 1.337576825089827 5
-4.503460964259549 2.162531152544011 1.338612101270237 5
-4.489689592481581 2.173301647540302 1.336541548909417 5
-4.481693887367744 2.189742584864581 1.336541548909417 5
-4.470941950932157 2.202884714844705 1.335506272729007 5
-4.473604803287452 2.223637044649218 1.338612101270237 5
-4.455843931974138 2.233266184177501 1.335506272729007 5
-4.447628673181399 2.249582668184512 1.335506272729007 5
-4.440144333654267 2.264319167392129 1.335506272729007 5
-4.435649158159169 2.281571658695090 1.336541548909417 5
-4.428058805184228 2.296268256512997 1.336541548909417 5
-4.426459624176752 2.316064946815155 1.338612101270237 5
-4.408096693626000 2.326092546556351 1.335506272729007 5
-4.394834038520600 2.338742869859423 1.333953358458392 7
-4.395154671404500 2.358636916201817 1.336541548909417 5
-4.386894715328639 2.373964499452440 1.336541548909417 5
-4.378581306325092 2.389263156694814 1.336541548909417 5
-4.370214545690123 2.404532701519630 1.336541548909417 5
-4.355880387612562 2.414503925899236 1.334470996548597 5
-4.360491062240323 2.437994942253805 1.338612101270237 5
-4.346077484359953 2.447889537536012 1.336541548909417 5
-4.347154740232042 2.469527600284657 1.339647377450647 5
-4.328882219475162 2.478170982388143 1.336541548909417 5
-4.323116257716991 2.495952335130953 1.337576825089827 5
-4.311475970978138 2.508331644682763 1.336541548909417 5
-4.312251007309358 2.529982639080559 1.339647377450647 5
-4.310934241721626 2.547448715945901 1.341717929811468 5
-4.291611085409934 2.557298561748206 1.338612101270237 5
-4.282209291703460 2.573010925818511 1.338612101270237 3
-4.299640708542205 2.603954971426012 1.346894310713518 3
-4.274490950168978 2.608136521301357 1.341717929811468 5
-4.268193761189228 2.625810321547213 1.342753205991877 5
-4.243501267142032 2.629031995382823 1.337576825089827 5
-4.231021059297217 2.641782255187258 1.336541548909417 5
-4.231584214951678 2.662708383556375 1.339647377450647 7
-4.228321665879633 2.682339442851208 1.341717929811468 5
-4.216617920325037 2.693529902608573 1.340682653631057 5
-4.207190057279211 2.708232236013693 1.340682653631057 5
-4.193519461808418 2.722262924025459 1.339647377450647 5
-4.187224820764403 2.738999511249919 1.340682653631057 5
-4.174412442625107 2.751472635325725 1.339647377450647 5
-4.171219646182755 2.770302449214065 1.341717929811468 5
-4.165221484939251 2.786267720302374 1.342753205991877 3
-4.151777794000289 2.799355309007510 1.341717929811468 3
-4.171733461806301 2.831915116998664 1.351035415435158 1
nan nan nan 0
-4.152360733265958 2.860245382317913 1.351035415435158 1
nan nan nan 0
-4.097459850398709 2.864811281473913 1.339647377450647 3
-4.080615528003901 2.875358960129338 1.337576825089827 5
-4.074209031203277 2.891110930489269 1.338612101270237 5
-4.076156243529222 2.915014254877029 1.342753205991877 5
-4.041384999471845 2.910451931472938 1.334470996548597 5
-4.037455777517375 2.929078956366724 1.336541548909417 5
-4.033445681449694 2.947713957820143 1.338612101270237 5
-4.028836819636991 2.967059807787851 1.340682653631057 5
-4.023119914273944 2.981300916075874 1.341717929811468 5
-4.000303880054853 2.986081228667552 1.337576825089827 5
-3.979546750557716 2.994450002837936 1.334470996548597 5
-3.974702368753894 3.013684417430099 1.336541548909417 5
-3.973899836724296 3.033882165109947 1.339647377450647 5
-3.951034132664903 3.038314051907468 1.335506272729007 5
-3.947046975899288 3.056130299419006 1.337576825089827 5
-3.930261614723580 3.065137294695277 1.335506272729007 5
-3.925615148023982 3.083611186026422 1.337576825089827 5
-3.917857472265338 3.099692641109363 1.338612101270237 5
-3.913601151002588 3.117482326032339 1.340682653631057 5
-3.893108993416148 3.124550304022153 1.337576825089827 5
-3.885731411627896 3.139871500399524 1.338612101270237 5
-3.874197107575733 3.154092328069154 1.338612101270237 5
-3.873234953860331 3.173594175224205 1.341717929811468 5
-3.858597521976371 3.185309276294940 1.340682653631057 3
-3.856927756738772 3.205496029396875 1.343788482172288 3
-3.836266017489270 3.212169526240761 1.340682653631057 5
-3.833326829426594 3.233682410809596 1.343788482172288 5
-3.818504937610631 3.245208447733637 1.342753205991877 5
-3.805922747672223 3.254013066288080 1.341717929811468 5
-3.794540935373424 3.267278391352322 1.341717929811468 5
-3.774355682032038 3.272910146619572 1.338612101270237 5
-3.768154058001690 3.291805738104572 1.340682653631057 5
-3.751990424402766 3.298525351959997 1.338612101270237 5
-3.746239261506335 3.316724501341836 1.340682653631057 5
-3.734638909060234 3.329781110101108 1.340682653631057 5
-3.710911776185480 3.333119631427402 1.336541548909417 5
-3.708435959740663 3.353181121948523 1.339647377450647 5
-3.708135809247042 3.376510822633461 1.343788482172288 5
-3.692888117843270 3.387467369125571 1.342753205991877 5
-3.669688673244869 3.389850540037302 1.338612101270237 5
-3.664086166904585 3.407263210224776 1.340682653631057 3
-3.643709649769206 3.412109644363936 1.337576825089827 3
-3.637997523063953 3.429474438783609 1.339647377450647 5
-3.625403435161294 3.442785331154165 1.339647377450647 5
-3.580452438488916 3.422750446870777 1.327224063285726 3
-3.470476269161043 3.342048001165983 1.290989396971373 3
-3.435569085886734 3.328135539271465 1.281671911347683 3
-3.431643456433131 3.348800583344075 1.284777739888913 3
-3.411665689837897 3.352634536069400 1.281671911347683 3
-3.402100598389753 3.367834584640383 1.282707187528093 3
-3.281441151655955 3.270006706455836 1.241296140311690 3
-3.229895328216200 3.242321107019433 1.226284635695743 8
-3.236572966368631 3.268362330228971 1.232496292778204 14
-3.233271736147872 3.287904694181119 1.235602121319434 13
-3.229296101847722 3.308027403384547 1.238707949860664 6
-3.226560686753125 3.329552340224724 1.242331416492100 3
nan nan nan 0
nan nan nan 0
-3.206583251415754 3.375492282198371 1.247507797394150 1
-3.183586795681749 3.375978433271374 1.243366692672510 1
-3.222561577730628 3.440092232146741 1.263036940100301 1
-3.228954877434346 3.471122769445992 1.270283873363172 1
-3.223465062466821 3.492012551257454 1.273389701904402 3
-3.211256025460534 3.503243269604214 1.273389701904402 3
-3.199621195561755 3.513872916312681 1.273389701904402 3
-3.192518657063820 3.530752011128666 1.275460254265222 3
-3.187247238572525 3.548505490085959 1.278048444716247 6
-3.178076796976812 3.564489337141658 1.279601358986862 14
-3.175830612723527 3.584577794692843 1.283224825618298 30
-3.160119576782288 3.593292392743678 1.282189549437888 21
-3.150728349328664 3.606661741230187 1.283224825618298 19
-3.141284989910975 3.622564115546604 1.284777739888913 19
-3.130515642110422 3.634424797109921 1.285295377979118 17
-3.120940001077226 3.650279301972664 1.286848292249733 16
-3.106317018311089 3.657663662702958 1.285813016069323 17
-3.086664522000336 3.661639001259044 1.283224825618298 17
-3.078867365842076 3.675760860371444 1.284777739888913 17
-3.070959013649983 3.692426872561714 1.286848292249733 19
-3.062971765800009 3.709082389745444 1.288918844610553 21
-3.045682802097142 3.715801559611289 1.287365930339938 29
-3.023586574355542 3.713895835143174 1.283224825618298 39
-3.008175351845518 3.721422713406978 1.282189549437888 42
-2.989120879080018 3.724367427138046 1.279601358986862 48
-2.961006379165852 3.717165571994735 1.273389701904402 43
-2.952259464444070 3.731509263027658 1.274942616175017 30
-2.959502995876753 3.767618253521467 1.283742463708503 29
-2.964678455326451 3.802817100583487 1.292024673151783 29
-2.957298316336749 3.820781098360119 1.294612863602809 29
-2.962776988054622 3.855589831359945 1.302895073046089 33
-2.958674435716108 3.878195716237937 1.307036177767730 33
-2.960964090207943 3.908003062768599 1.313765472940395 35
-2.961713668321398 3.938902095034128 1.320494768113061 33
-2.972447537550636 3.979141174753989 1.330847529917162 36
-2.967047003798416 4.002424443088973 1.334988634638802 31
-2.952612860791994 4.010685783461017 1.334470996548597 19
-2.940172333775501 4.024600556974891 1.335506272729007 21
-2.929078956366726 4.037455777517375 1.336541548909417 21
-2.919904685540703 4.056003472448943 1.339129739360442 19
-2.906438438702414 4.065663924034242 1.339129739360442 17
-2.888164381490752 4.071562199263419 1.337576825089827 19
-2.871309276437902 4.076379171367771 1.336023910819212 17
-2.859276483789460 4.089543583299792 1.337059186999622 17
-2.848288171623357 4.104260729257262 1.338612101270237 17
-2.833226172654675 4.114672659752828 1.338612101270237 15
-2.818104391769388 4.120364046303762 1.337576825089827 17
-2.799364368527418 4.123782502475194 1.335506272729007 17
-2.786032065615939 4.135131127192840 1.336023910819212 15
-2.778372256376189 4.156557290485564 1.339647377450647 17
-2.756027517494652 4.152870732194025 1.335506272729007 17
-2.742577105253750 4.164079121661511 1.336023910819212 17
-2.726968083482911 4.172010075151667 1.335506272729007 17
-2.714491063682335 4.184745028460821 1.336541548909417 15
-2.705095287477772 4.202316864162671 1.339129739360442 15
-2.687290064996354 4.206849693482584 1.337576825089827 15
-2.672290304607631 4.214106460254649 1.337059186999622 15
-2.650655392034670 4.214061037779959 1.333953358458392 15
-2.642805408655570 4.232659719661005 1.337059186999622 17
-2.627274184049379 4.242317655749930 1.337059186999622 17
-2.617981510302086 4.257132879400976 1.339129739360442 17
-2.603366691489323 4.268348951729878 1.339647377450647 17
-2.583195244613994 4.267042888962151 1.336541548909417 17
-2.571515996064090 4.283107181045017 1.338612101270237 17
-2.561254166638770 4.298249308279863 1.340682653631057 17
-2.543517467927468 4.304281565422672 1.339647377450647 17
-2.529229970768043 4.312692506898480 1.339647377450647 17
-2.513188987139544 4.319825072393666 1.339129739360442 17
-2.498850112609822 4.328135355539417 1.339129739360442 17
-2.485849281326602 4.342294712796542 1.340682653631057 19
-2.476013377695686 4.356801072033302 1.342753205991877 17
-2.456995631299366 4.358685867326138 1.340682653631057 19
-2.445716108263090 4.376093709830887 1.343270844082083 21
-2.436214493096577 4.396856906859006 1.346894310713518 22
-2.419432981622000 4.397295658289286 1.344823758352698 24
-2.398516693320277 4.395539405884834 1.341717929811468 19
-2.383309257653746 4.406000075197642 1.342235567901673 14
-2.379786463785740 4.436423580427482 1.348964863074338 10
-2.367007698379316 4.449820253548260 1.350517777344953 7
-2.344250202042102 4.444385766969530 1.346376672623313 15
-2.332186048533129 4.457270248010929 1.347929586893928 19
-2.305161626987489 4.445208529449078 1.341717929811468 19
-2.286873529319480 4.445956631028633 1.339647377450647 19
-2.272317608589844 4.457750857545239 1.340682653631057 19
-2.258485969440798 4.469103950755844 1.341717929811468 19
-2.242090714804954 4.477351697533694 1.341717929811468 19
-2.223715792623460 4.475722915328590 1.339129739360442 19
-2.208149738142753 4.485576399753960 1.339647377450647 19
-2.193199233633063 4.490755466817557 1.339129739360442 19
-2.177566469733574 4.500502769022775 1.339647377450647 21
-2.167644117761272 4.518149710504676 1.342753205991877 19
-2.147711862700218 4.516965296074030 1.340165015540852 19
-2.127849321344311 4.517815896344327 1.338094463180032 19
-2.112093147320096 4.527335218357082 1.338612101270237 19
-2.101915891491450 4.542714536770113 1.341200291721263 19
-2.082825603644634 4.542999564820891 1.339129739360442 19
-2.062959998816318 4.541447867291068 1.336541548909417 19
-2.047093429305745 4.550740293859138 1.337059186999622 19
-2.035138090312258 4.564561369345428 1.339129739360442 19
-2.018411883914472 4.569870360218735 1.338612101270237 19
-2.009416838358240 4.592816936169063 1.343270844082083 19
-1.983386606022634 4.576759799147081 1.336541548909417 19
-1.970446517258781 4.590756164833373 1.338612101270237 19
-1.956677079852721 4.602939988344342 1.340165015540852 17
-1.939902690823931 4.605842495276462 1.339129739360442 17
-1.925238410111468 4.618271006175823 1.340682653631057 17
nan nan nan 0
-1.884179716023318 4.610139906455863 1.334470996548597 3
-1.886455195195789 4.655099381934229 1.345859034533108 1
-1.868661739495516 4.660189248342030 1.345341396442903 7
-1.850345550109226 4.659178552559453 1.343270844082083 21
-1.826191806845339 4.647948654214878 1.338094463180032 19
-1.814271066447060 4.662980862035124 1.340682653631057 17
-1.799249863123261 4.675007979705554 1.342235567901673 17
-1.786488704213211 4.688169703065729 1.344306120262493 14
-1.769431454930155 4.692569535071895 1.343788482172288 5
-1.749664124129725 4.689667496765646 1.341200291721263 14
-1.733801174960751 4.699673729735331 1.342235567901673 22
-1.741399111739134 4.768910265271820 1.360352901058849 22
-1.739180377781272 4.814932856197792 1.371740939043360 24
-1.741411360107594 4.871609132382956 1.386234805569101 21
-1.734485418728704 4.908924388179192 1.395034653102587 21
-1.734136052529152 4.960239595628037 1.407975605357713 19
-1.743951782666477 5.044773410303153 1.430234043236529 19
-1.741062156870681 5.096834752893258 1.443174995491656 17
-1.746129942788181 5.170602305249643 1.462327604829242 19
-1.742139781342309 5.218812241855393 1.474233280903958 19
-1.740255381220748 5.274395099387581 1.488209509339494 17
-1.855781957475930 5.687855398168998 1.603125165365013 15
-1.911352876055426 5.931818150738046 1.669900479001464 20
-1.916176290819799 6.011417783388561 1.690606002609665 18
-1.908629328052090 6.064469132633978 1.703546954864791 16
-1.913183461026898 6.150085266956079 1.725805392743608 18
-1.909342909774996 6.217998793060286 1.742887449720375 18
-1.913955456112020 6.307484015733149 1.766181163779601 16
-1.915207950402983 6.395885747968314 1.788957239748623 16
-1.917553141434181 6.481858662366257 1.811215677627440 15
-1.915973718033392 6.564877197018650 1.832438839325847 16
-1.919342159710025 6.658439374286616 1.856767829565484 15
-1.921460975269167 6.754288619266795 1.881614457895326 15
-1.923977937046081 6.853952620581018 1.907496362405578 15
-1.923577946746131 6.950327650474303 1.932342990735420 15
-1.927205309827764 7.049509979666087 1.958224895245672 15
-1.927732713036076 7.149456118772454 1.984106799755924 16
-1.927089121397437 7.247623717632784 2.009471066175971 24
-1.917157702394512 7.318176991099856 2.027070761242943 67
-1.879344835391843 7.272123020998508 2.012576894717201 45
-1.851564745670315 7.269278464972518 2.009988704266176 50
-1.827589851270427 7.281318538041563 2.011541618536791 45
-1.801234656836840 7.283902934440755 2.010506342356381 45
-1.776155388144919 7.286082216895811 2.009471066175971 45
-1.744848630441269 7.267817599219574 2.002741771003306 48
-1.720357426367930 7.277624053956100 2.003777047183716 48
-1.689296762483440 7.265064062002582 1.998600666281665 50
-1.668645942388496 7.285690778342776 2.002741771003306 46
-1.638960673538822 7.278565100053617 1.999118304371870 52
-1.612738669374014 7.268590231756187 1.994977199650230 50
-1.583206320221166 7.261239843002286 1.991353733018794 54
-1.557850217652221 7.266722026426567 1.991353733018794 50
-1.533992067968662 7.285615849623486 1.994977199650230 48
-1.508051922017809 7.269327880048449 1.989283180657974 50
-1.476772618088597 7.252090317063602 1.983071523575514 48
-1.456374405416211 7.281827400656902 1.989800818748179 50
-1.425735645236198 7.260327675873178 1.982553885485309 52
-1.398921144381263 7.257672450518770 1.980483333124489 50
-1.373028409509939 7.266547528755111 1.981518609304899 48
-1.352309429296696 7.282221436357122 1.984624437846129 50
-1.322382417470522 7.262189721189714 1.977895142673464 50
-1.295756279354829 7.266987716316938 1.977895142673464 50
-1.270773442133010 7.281203514940751 1.980483333124489 52
-1.246587988601202 7.277543353054392 1.978412780763669 50
-1.219259951560356 7.270418943570085 1.975306952222438 50
-1.190729180426850 7.263400494715309 1.972201123681208 48
-1.169344247891346 7.292309951397997 1.978930418853873 52
-1.141561122544495 7.273245691604953 1.972718761771413 48
-1.117923082589515 7.288643301035484 1.975824590312643 52
-1.091290219724818 7.267283768712391 1.969095295139978 50
-1.064926838840725 7.273146205128088 1.969612933230183 54
-1.040078736176634 7.280644055116281 1.970648209410593 13
-1.016581140534294 7.307368326077389 1.976859866493053 46
-0.991277785954471 7.293297682038200 1.972201123681208 41
-0.969096736635084 7.331355366916926 1.981518609304899 78
-0.938115950642400 7.282796128042665 1.967542380869363 52
-0.910697516984193 7.280434839333540 1.965989466598748 52
-0.886783143126029 7.285332488244816 1.966507104688953 54
-0.860075108364872 7.288533776774244 1.966507104688953 56
-0.835020603270661 7.283668692629468 1.964436552328132 54
-0.808737444007218 7.278858937280827 1.962365999967312 56
-0.784564322184664 7.293162230177950 1.965471828508543 58
-0.757628690506999 7.294067301367467 1.964954190418338 56
-0.733436525987235 7.296539583385073 1.964954190418338 60
-0.706283861546307 7.281749849109930 1.960295447606492 58
-0.681221086505712 7.288017811670710 1.961330723786902 61
-0.654677328344120 7.292389772958678 1.961848361877107 60
-0.630657649312170 7.296445340817427 1.962365999967312 61
-0.605344097031318 7.300527538995756 1.962883638057517 60
-0.578939317325908 7.291041366237183 1.959777809516287 60
-0.498224491308807 6.564871827152434 1.764110611418781 18
nan nan nan 0
-0.502159139596228 7.290922263895018 1.958224895245672 58
-0.478736903914574 7.304113688104795 1.961330723786902 61
-0.451008510466882 7.290393961817813 1.957189619065262 65
-0.426943101263029 7.293778025383329 1.957707257155467 65
-0.400418838581395 7.299151761801510 1.958742533335877 63
-0.376211777444219 7.300439465307087 1.958742533335877 63
-0.349636501937361 7.305628600869371 1.959777809516287 63
-0.324892539602555 7.295168236345051 1.956671980975057 63
-0.298231105384062 7.298240267544265 1.957189619065262 65
-0.273955153825186 7.297258617628936 1.956671980975057 65
-0.247142125045934 7.296282954822991 1.956154342884852 65
-0.223358391123410 7.310579044538286 1.959777809516287 65
-0.197472560563797 7.297796158748004 1.956154342884852 69
-0.173133557491663 7.292616953229443 1.954601428614237 65
-0.146442389422286 7.295133998878228 1.955119066704442 65
-0.121168906502254 7.307190250413433 1.958224895245672 65
-0.095661314310898 7.307568690924800 1.958224895245672 69
-0.071352492028418 7.300118698260603 1.956154342884852 65
-0.044595740188347 7.300331184731950 1.956154342884852 65
-0.020397513860965 7.304302618077339 1.957189619065262 65
0.005102082052225 7.308193020740408 1.958224895245672 65
nan nan nan 0
0.070945842335765 9.453072146010836 2.182475129244178 2
0.072686840780193 6.716913949136547 1.550812568646605 2
0.135902277241200 9.495238138495774 2.192372975635308 2
0.118611488441234 6.727954209027516 1.553511981298732 2
0.200612968408977 9.497989732046641 2.193272779852684 2
0.165865909467384 6.738651096281368 1.556211393950858 2
0.267463538276646 9.515837449572549 2.197771800939561 2
0.302586594773089 9.522584258893525 2.199571409374312 2
0.239246816570179 6.783244033280107 1.567009044559364 2
0.369501395947404 9.574828170827116 2.212168668417569 2
0.283118546710922 6.726941941889860 1.554411785516107 2
0.307840597470274 6.753166751009624 1.560710415037735 2
0.330647391328431 6.736479868532733 1.557111198168234 2
0.353955422238515 6.731392549569924 1.556211393950858 2
nan nan nan 0
nan nan nan 0
0.413382537587046 6.552278316760675 1.515720204168963 2
nan nan nan 0
0.511124021206222 7.309414043058731 1.691631928665865 53
0.538769298311036 7.319152474776367 1.694331341317991 63
0.565063848705580 7.326942081112909 1.696580851861430 66
0.588420036137944 7.313373197846096 1.693881439209304 67
0.613944887784841 7.311274673041978 1.693881439209304 63
0.640481322067520 7.320735010173486 1.696580851861430 68
0.666031554059867 7.318454712717278 1.696580851861430 67
0.691028978518977 7.323966327266337 1.698380460296181 68
0.716590181959287 7.321509565875312 1.698380460296181 68
0.742632312943266 7.311078898553187 1.696580851861430 68
0.768963011721335 7.316194345333411 1.698380460296181 72
0.793640407534383 7.317478902338114 1.699280264513556 71
0.820045884405425 7.322410532967945 1.701079872948307 72
0.846654369916054 7.317419905963037 1.700629970839620 76
0.872653251087514 7.318290013928178 1.701529775056995 75
0.898193533979414 7.315199300095115 1.701529775056995 77
0.925188324077449 7.323619695256649 1.704229187709121 75
0.949192808682793 7.328407382144689 1.706028796143872 77
0.973225587137421 7.313459165666726 1.703329383491746 76
0.999275995343227 7.313879022850400 1.704229187709121 76
1.025341186717176 7.314206079385045 1.705128991926497 77
1.054085475674413 7.323900943955604 1.708278306687311 78
1.081918970100322 7.335599954092240 1.711877523556813 78
1.103216680470421 7.320602921968661 1.709178110904686 85
1.129357874748574 7.320559289764353 1.710077915122062 86
1.155512199523536 7.320422310268465 1.710977719339437 82
1.182921559913706 7.327887231008710 1.713677131991564 82
1.209762545710251 7.331404376792551 1.715476740426314 85
1.234698586814879 7.323293612135028 1.714576936208939 82
1.262146126847387 7.314658012632806 1.713677131991564 82
1.290375840484581 7.325561284429755 1.717276348861066 85
1.315447891562857 7.332980037092011 1.719975761513192 85
1.343843004623337 7.343678865038831 1.723574978382694 82
1.368603078503015 7.327210444690637 1.720875565730567 78
1.394900456563708 7.326217188407601 1.721775369947943 78
1.421949906281739 7.328955707187652 1.723574978382694 81
1.449791142696463 7.335418077343395 1.726274391034820 86
1.474876659209146 7.334391054434922 1.727174195252196 85
1.500469476269789 7.329198090516970 1.727174195252196 81
1.528117939336124 7.327464760463633 1.728073999469571 82
1.556113257495906 7.333523772766958 1.730773412121697 82
1.584991769938215 7.343286231179762 1.734372628991199 78
1.610614966101214 7.337708839602246 1.734372628991199 81
1.634082848979448 7.334514846140772 1.734822531099887 75
1.660535955563853 7.332567375412274 1.735722335317262 76
1.690024266274340 7.337826095349421 1.738421747969389 77
1.716515769201132 7.335677075238691 1.739321552186764 75
1.743534070357969 7.341320583080592 1.742020964838890 77
1.767778713946036 7.329506531022854 1.740671258512827 82
1.795558521994670 7.326763530205756 1.741571062730203 85
1.823945477079281 7.331797829001530 1.744270475382329 82
1.848875526703856 7.333590017798552 1.746070083817080 81
1.878327145970973 7.342195071703248 1.749669300686582 82
1.903265415776358 7.327716717778952 1.747869692251831 85
1.930818252911319 7.328566177122194 1.749669300686582 81
1.958126407136984 7.333419725215818 1.752368713338708 88
1.986768673158280 7.337825979981259 1.755068125990835 88
2.017528963011465 7.349638381467124 1.759567147077712 85
2.041082030369179 7.335041474006613 1.757767538642961 86
2.066228881208497 7.336096077982122 1.759567147077712 82
2.093963473473861 7.336334515569257 1.761366755512463 86
2.124088745990200 7.339842065977638 1.764066168164589 81
2.154082652518515 7.347343126101507 1.767665385034091 86
2.178435476462459 7.340159532424487 1.767665385034091 88
2.205166079391224 7.336243162114399 1.768565189251467 88
2.236435704791725 7.347143842633682 1.773064210338344 82
2.264364331127815 7.346741631548388 1.774863818773095 81
2.296961215546000 7.361116090130639 1.780262644077348 78
2.319120488903960 7.341903916303385 1.777563231425221 82
2.348389444304856 7.340778902950490 1.779362839859972 81
2.379401511244234 7.349222695861221 1.783411958838162 76
2.404972124004509 7.344995889378216 1.784311763055537 75
2.434886300972043 7.349505262031607 1.787461077816351 81
2.457387782765539 7.335847016790069 1.786111371490288 77
2.242186954961449 6.616649777825280 1.612899059645512 40
2.521198169036228 7.351254836408381 1.794209609446667 97
2.546204850383051 7.340568300357718 1.793759707337980 81
2.574392901505745 7.338991206713535 1.795559315772731 81
2.601298006594510 7.333633431737081 1.796459119990106 81
2.628233114380528 7.332304701941774 1.798258728424857 85
2.659123229019025 7.337742949836211 1.801857945294359 85
2.690083269183764 7.343054707711826 1.805457162163860 81
2.718405826078181 7.340929691113360 1.807256770598612 82
2.749478693607354 7.345996699294800 1.810855987468113 82
2.778551591097146 7.345467957093804 1.813105498011552 77
2.809045906992276 7.348466203738788 1.816254812772366 78
2.839594950980611 7.351340907282199 1.819404127533180 77
2.872323779529867 7.359537853017750 1.823903148620058 73
2.896566164551491 7.345840949862182 1.823003344402682 77
2.925074977113370 7.342926838909741 1.824802952837433 76
2.955781166076332 7.345326691553676 1.827952267598247 72
2.988007275273789 7.351212107026495 1.832001386576437 73
3.018830225602652 7.353356374633915 1.835150701337251 21
nan nan nan 0
3.073102986119070 7.339292036438842 1.836950309772002 72
3.106292454224798 7.346469053273515 1.841449330858879 70
3.136508624635681 7.346334668349433 1.844148743511005 68
2.864357127133374 6.644577413410657 1.670486529557542 30
nan nan nan 0
3.227376341076893 7.345201091372658 1.852246981467385 68
3.259317315628979 7.348141637459069 1.855846198336886 72
3.298791478455746 7.371088965180282 1.864394338401953 73
3.325303527735378 7.361305074989418 1.864844240510641 72
3.355021213058843 7.358518436798266 1.867093751054080 73
3.383130665889804 7.352073309216210 1.868443457380143 68
3.413698367058808 7.350823887066498 1.871142870032269 63
3.444298508005958 7.349450516016287 1.873842282684395 62
3.479929296821488 7.358523013972921 1.879241107988648 67
3.505594134674027 7.346330963207734 1.879241107988648 67
3.534597839254393 7.341072669432957 1.881040716423399 66
3.572122698624978 7.353229876674333 1.887339345945028 67
3.602914293536560 7.351215279423568 1.890038758597154 68
3.634599021931564 7.350822053938544 1.893188073357968 63
3.666324831803621 7.350297051012495 1.896337388118782 62
3.698967098526392 7.351380775136384 1.899936604988284 63
3.733425480641398 7.355801460523065 1.904435626075161 63
3.767071646773384 7.358336305577144 1.908484745053351 60
3.800389944575577 7.363120627808077 1.912983766140228 56
3.829668190948964 7.356724147042959 1.914783374574979 55
3.857136331551911 7.346762094849287 1.915683178792354 55
3.895524048557338 7.357364631144876 1.921981808313983 57
3.929443228743701 7.359193215237275 1.926030927292172 62
3.963422539903869 7.360874457914018 1.930080046270362 60
3.994671790767000 7.357270203493798 1.932779458922488 60
4.026879935111856 7.355246683247177 1.935928773683302 61
4.063831505515412 7.361618072692277 1.941327598987555 61
4.093294554896024 7.354198823980337 1.943127207422306 62
4.132292070791622 7.363657864670802 1.949425836943934 61
4.133021113840443 7.305090087718513 1.937728382118053 38
4.128564331233238 7.238143796819795 1.923781416748733 38
4.135347977305873 7.191590547471105 1.915233276683666 36
4.131548991756779 7.133033499904953 1.903085919749098 40
4.135788031533425 7.083227835958366 1.893637975466656 41
4.134036095578951 7.021002448625672 1.881040716423399 40
4.137631698655759 6.971337348138361 1.871592772140957 38
4.139930734467292 6.920060803002417 1.861694925749827 40
4.142928775091674 6.870522417121014 1.852246981467385 40
4.143429287468904 6.820105820603423 1.842349135076254 41
4.135664006657347 6.754081190646872 1.828402169706935 40
4.137869370658029 6.702397712569126 1.818504323315805 40
4.143738391636658 6.659784736335503 1.810855987468113 41
4.147170584279403 6.616285713409225 1.802757749511734 41
4.145262733624305 6.562227660875862 1.791960098903229 42
4.143117396456776 6.505897099327108 1.780712546186035 40
4.145804440606421 6.460233963094990 1.772164406120968 41
4.147041690250569 6.417716087025103 1.764066168164589 41
4.146024605270632 6.367273943484526 1.754168321773459 41
4.151189425516695 6.321986208137233 1.746070083817080 41
4.146349532274190 6.266826975575262 1.734822531099887 38
4.149823181183017 6.224750666827627 1.727174195252196 40
4.151967210553474 6.181109134737574 1.719075957295817 42
4.149531323755125 6.135749939281003 1.710077915122062 42
4.153366643452606 6.095461180004332 1.702879481383058 42
4.151408934481667 6.044856742908458 1.692981634991928 41
4.148090122750363 5.995073084966526 1.683083788600798 42
4.147893414709534 5.952505323419853 1.674985550644419 43
4.152970453551324 5.915660941196973 1.668686921122791 43
4.153339956640238 5.872489798195933 1.660588683166412 45
4.151197301720241 5.826214321218888 1.651590640992657 42
4.147517972603532 5.776135683576358 1.641692794601527 38
4.149381000683596 5.736359603047442 1.634494360862523 38
4.152317516070086 5.700515933332776 1.628195731340895 40
4.157203587251749 5.665561978567279 1.622347003927954 41
4.151292999395532 5.614248020320155 1.611999255428137 38
4.149911819635923 5.571591641120078 1.603901017471757 40
4.158809350739850 5.543042728239185 1.599851898493568 40
4.158158642909795 5.502062205709089 1.592203562645877 42
4.159859846540986 5.466531953645582 1.585904933124248 42
4.157577113888202 5.424138141194093 1.577806695167869 42
4.152667564204809 5.378742186747019 1.568808652994115 42
4.157062255861278 5.345753745878713 1.563409827689862 42
4.158874140178835 5.309732065056658 1.557111198168234 42
4.167727327822551 5.282942877306398 1.553511981298732 42
4.160684117146610 5.236322175622590 1.544064037016289 47
4.159454720731738 5.197422875199361 1.536865603277286 47
4.158004690528401 5.158596257120783 1.529667169538282 46
4.161247444972758 5.125895211226401 1.524268344234029 45
4.163423746519422 5.093961335874488 1.518869518929777 45
4.158886605536483 5.052315146432894 1.510771280973397 46
4.164936259352602 5.022038016047500 1.506272259886520 47
4.159954826935890 4.980547202654187 1.498174021930141 43
4.162261450408288 4.948100426505472 1.492775196625888 48
4.164392424268052 4.915698451566465 1.487376371321635 45
4.160437440113873 4.878138331371133 1.480177937582632 46
4.157124156273661 4.839933277492840 1.472979503843628 42
4.163794221068556 4.813601900536431 1.469380286974126 41
4.167771180058667 4.784344288147015 1.464881265887249 40
4.167283014345233 4.748530822395747 1.458582636365621 45
4.164475443185579 4.712052420700741 1.451834104735305 49
4.164055416295484 4.678563110463527 1.445985377322364 45
4.162151865974024 4.643683227005897 1.439686747800736 48
4.168389647079139 4.619727692580865 1.436537433039922 49
4.164832312001542 4.583515191456641 1.429788901409606 48
4.164225351214605 4.552423984581640 1.424390076105353 46
4.157645693220481 4.513494115544727 1.416741740257662 49
4.163556140882333 4.486797574029072 1.413142523388160 50
4.163226269430994 4.455150806653434 1.407743698083907 53
4.167295242355331 4.429965308997097 1.404144481214405 53
4.163970656968563 4.395585438005964 1.397845851692777 53
4.157766820502993 4.358462897084583 1.390647417953774 51
4.159455023769014 4.329869573913982 1.386148396866896 53
4.161745092149493 4.300591446577587 1.381649375780019 51
4.171291379479340 4.280455448552005 1.379849767345268 49
4.162263444921591 4.242950181944806 1.372201431497577 48
4.161983981072695 4.213145371315373 1.367252508302012 51
