# This PCD file was generated using the MATLAB® pcwrite function
# from Computer Vision Toolbox®.
# .PCD v.7 - Point Cloud Data file format
VERSION .7
FIELDS x y z intensity
SIZE 8 8 8 1
TYPE F F F U
COUNT 1 1 1 1
WIDTH 934
HEIGHT 1
VIEWPOINT 0 0 0 1 0 0 0
POINTS 934
DATA ascii
0.117141747092232 -2.438753838033733 -0.386705997579451 37
0.108540307000247 -2.437174460700104 -0.386393128649370 35
0.099708327937738 -2.429643627472750 -0.385141652929048 37
0.091523112647839 -2.437872816613657 -0.386393128649370 37
0.083348875033790 -2.448048603263722 -0.387957473299773 38
0.074682432788656 -2.444375720087668 -0.387331735439612 37
0.065935783975060 -2.436722902885488 -0.386080259719290 37
0.057522710842366 -2.440887873125971 -0.386705997579451 38
0.048962425996534 -2.439098815335920 -0.386393128649370 37
0.040546338424040 -2.445180181737481 -0.387331735439612 38
0.031855678448866 -2.433455573321385 -0.385454521859129 39
0.023843793961156 -2.439473677583361 -0.386393128649370 36
0.015315884875473 -2.437566708159095 -0.386080259719290 38
0.006812612171483 -2.439580689062764 -0.386393128649370 37
-0.001703155118112 -2.439589606756677 -0.386393128649370 37
-0.010202352826708 -2.435618080118573 -0.385767390789209 37
-0.018673845059192 -2.431616991775182 -0.385141652929048 37
-0.027205788006295 -2.435487500543298 -0.385767390789209 37
-0.035736019647138 -2.437352861190777 -0.386080259719290 38
-0.044279605076628 -2.439188321287803 -0.386393128649370 37
-0.052579951834220 -2.429144325821541 -0.384828783998968 38
-0.061158210386941 -2.432895494031878 -0.385454521859129 38
-0.070102502096603 -2.448463730201175 -0.387957473299773 36
-0.078268249642831 -2.436357961005101 -0.386080259719290 38
-0.087334792114823 -2.451862908502614 -0.388583211159933 37
-0.094884064152548 -2.447628651017297 -0.387957473299773 37
-0.102760031568710 -2.431493612471632 -0.385454521859129 38
-0.111943137594883 -2.437020534192924 -0.386393128649370 37
-0.120449244775591 -2.436614932558188 -0.386393128649370 37
-0.129049047863157 -2.446065277574674 -0.387957473299773 39
-0.137253752013296 -2.439683136090413 -0.387018866509531 36
-0.145179795492686 -2.429329874380804 -0.385454521859129 36
-0.154033024060961 -2.434722607943498 -0.386393128649370 38
-0.162662457486167 -2.436141087121319 -0.386705997579451 37
-0.171719118464465 -2.443440513551464 -0.387957473299773 37
-0.179375107163122 -2.431006088841676 -0.386080259719290 37
-0.187859809193018 -2.430365142348994 -0.386080259719290 37
-0.196978663773504 -2.437570415955064 -0.387331735439612 36
-0.205320189965631 -2.434899590652180 -0.387018866509531 38
-0.215109142835003 -2.443969546592884 -0.388583211159933 35
-0.222018306492831 -2.425499410798886 -0.385767390789209 36
-0.230382099885196 -2.432656261171760 -0.387018866509531 36
-0.239065357443976 -2.433803172319307 -0.387331735439612 35
-0.247759426717041 -2.434919080211067 -0.387644604369692 35
-0.256671022945736 -2.437968442643322 -0.388270342229853 35
-0.264752192898007 -2.433130069901476 -0.387644604369692 35
-0.272582181622025 -2.426302006284102 -0.386705997579451 34
-0.282384108627177 -2.433135469739754 -0.387957473299773 35
-0.291344770236814 -2.436057740050571 -0.388583211159933 34
-0.300385747117341 -2.442920653609882 -0.389834686880255 34
-0.308911301501379 -2.441857228567981 -0.389834686880255 32
-0.316328459174510 -2.428955599599782 -0.387957473299773 32
-0.325590988252516 -2.433710407435399 -0.388896080090014 31
-0.334084239318752 -2.432559055794830 -0.388896080090014 31
-0.344227032319215 -2.443114402391877 -0.390773293670497 31
-0.351198450519850 -2.434138944615375 -0.389521817950175 31
-0.359115221303670 -2.428989933432957 -0.388896080090014 29
-0.367758844913341 -2.431692041630436 -0.389521817950175 29
-0.377453612281305 -2.438202002199512 -0.390773293670497 29
-0.387006249097816 -2.440704193726905 -0.391399031530658 28
-0.395523538871285 -2.439338420210611 -0.391399031530658 28
-0.403390068453037 -2.434045333519359 -0.390773293670497 27
-0.413203098765039 -2.440413034581451 -0.392024769390819 26
-0.421629755964350 -2.440975937292750 -0.392337638320899 26
-0.430490803922523 -2.441434669798414 -0.392650507250979 26
-0.437611142344047 -2.432140474194121 -0.391399031530658 25
-0.446098230855481 -2.430598108808709 -0.391399031530658 24
-0.455670003426174 -2.434851130055875 -0.392337638320899 22
-0.465647038588862 -2.441007260284506 -0.393589114041221 22
-0.476426424995606 -2.451001478025526 -0.395466327621704 22
-0.483444370188428 -2.441572483354423 -0.394214851901382 20
-0.490758038715089 -2.436082953584456 -0.393589114041221 20
-0.501639766682835 -2.445965643299144 -0.395466327621704 20
-0.511005266237744 -2.446044244377873 -0.395779196551784 19
-0.522004664256858 -2.455838860751007 -0.397656410132267 19
-0.528477212888721 -2.446370978292383 -0.396404934411945 19
-0.536165728690542 -2.440652605135472 -0.395779196551784 19
-0.547265401258739 -2.450333438547870 -0.397656410132267 19
-0.555815327015672 -2.448408197530628 -0.397656410132267 19
-0.567022643109320 -2.458002076021149 -0.399533623712750 19
-0.572894757130847 -2.444468240074456 -0.397656410132267 18
-0.581424053381621 -2.442453571642664 -0.397656410132267 18
-0.592731219995406 -2.451929563500085 -0.399533623712750 18
-0.603169874700129 -2.457519360315734 -0.400785099433071 18
-0.612699648089430 -2.459232498348750 -0.401410837293232 18
-0.616980140165937 -2.441865681245682 -0.398907885852589 18
-0.627462436410034 -2.447351093782816 -0.400159361572911 18
-0.636995992515530 -2.448969458689017 -0.400785099433071 17
-0.646548480230272 -2.450551040565259 -0.401410837293232 17
-0.657732841228713 -2.459843543315649 -0.403288050873715 16
-0.662696821059106 -2.444186847017451 -0.401097968363152 18
-0.671126853927364 -2.439836890042034 -0.400785099433071 16
-0.683883815482991 -2.452701709328492 -0.403288050873715 18
-0.694160950227736 -2.458024480472479 -0.404539526594037 16
-0.703823814379007 -2.459384708985714 -0.405165264454198 17
-0.709530480501108 -2.445405742461228 -0.403288050873715 8
-0.726418255023961 -2.471342136004852 -0.407981084824922 4
-0.740113555116231 -2.485830611327910 -0.410796905195646 5
-0.751067360353661 -2.490797051547137 -0.412048380915968 5
-0.761052676580273 -2.493960819951941 -0.412986987706210 6
-0.765671561250356 -2.478077674927508 -0.410796905195646 7
-0.772547808405840 -2.469734005709028 -0.409858298405405 8
-0.784741933041018 -2.478321602757956 -0.411735511985888 10
-0.790976594925743 -2.468042722938727 -0.410484036265566 9
-0.798367970451669 -2.461508634757374 -0.409858298405405 12
-0.806526237539354 -2.458847616951656 -0.409858298405405 15
-0.813237652741998 -2.450392867678986 -0.408919691615163 17
-0.822213329210490 -2.447395743862844 -0.408919691615163 18
-0.832658176207655 -2.450121739184151 -0.409858298405405 22
-0.843132049379240 -2.452804568242493 -0.410796905195646 23
-0.846499529322398 -2.434919833215063 -0.408293953755003 27
-0.856108417110633 -2.437839840830794 -0.409232560545244 34
-0.868578964488773 -2.446005587905699 -0.411109774125727 33
-0.876202514491384 -2.439087536266402 -0.410484036265566 35
-0.887408470911286 -2.443441031399082 -0.411735511985888 35
-0.895251465815693 -2.438474158513030 -0.411422643055807 35
-0.903757874909800 -2.435334291697856 -0.411422643055807 36
-0.915028186895224 -2.439562970878101 -0.412674118776129 35
-0.927039179412717 -2.445589674342739 -0.414238463426531 36
-0.938396728801687 -2.449717471432582 -0.415489939146853 37
-0.942663768567537 -2.435373797321390 -0.413612725566370 36
-0.953611231321979 -2.439593678051190 -0.414864201286692 37
-0.962846774314188 -2.438087383495305 -0.415177070216773 38
-0.977207345666569 -2.449389557233304 -0.417680021657416 38
-0.988704919428679 -2.453292274231176 -0.418931497377738 37
-0.994283357883025 -2.442507728492402 -0.417680021657416 38
-1.005056733862381 -2.444503099943726 -0.418618628447658 38
-1.016186343486053 -2.448454698567735 -0.419870104167980 38
-1.026254018107187 -2.448536284631269 -0.420495842028141 37
-1.036334625607237 -2.448577374460503 -0.421121579888302 37
-1.044875441979499 -2.444944973961690 -0.421121579888302 37
-1.051838291321682 -2.437655319307168 -0.420495842028141 38
-1.065074552832285 -2.444834799900587 -0.422373055608623 39
-1.075192651762095 -2.444718548692415 -0.422998793468784 38
-1.088529168808293 -2.451783152582503 -0.424876007049267 38
-1.092233666619282 -2.437152772853469 -0.422998793468784 38
-1.100734263133691 -2.433325317890619 -0.422998793468784 37
-1.114931757704196 -2.444233098692035 -0.425501744909428 38
-1.123456930883473 -2.440326369469649 -0.425501744909428 39
-1.135297733962515 -2.443555758304221 -0.426753220629750 39
-1.142143262666955 -2.436000848926974 -0.426127482769589 39
-1.151904061583341 -2.435771483860902 -0.426753220629750 39
-1.168056067729884 -2.447780925992630 -0.429569041000474 42
-1.179161381901798 -2.446836914809095 -0.430194778860635 42
-1.192877922980617 -2.453365047075835 -0.432071992441118 43
-1.197954600564337 -2.442092229494858 -0.430820516720796 43
-1.208224114149297 -2.441436589263831 -0.431446254580957 43
-1.219415007590626 -2.444699513939264 -0.432697730301279 43
-1.227941172315235 -2.440428067271234 -0.432697730301279 48
-1.241816593510654 -2.446695764951532 -0.434574943881761 45
-1.248549230592745 -2.438829412931435 -0.433949206021600 45
-1.261106074231662 -2.441257019682150 -0.435200681741922 47
-1.276921880524219 -2.450854961138516 -0.437703633182566 46
-1.285042187505247 -2.446607059956811 -0.437703633182566 46
-1.297273180279988 -2.449088954712405 -0.438955108902888 46
-1.305814192673612 -2.444545705561714 -0.438955108902888 45
-1.316212906812122 -2.443450892303806 -0.439580846763049 47
-1.327046109696071 -2.442081650067191 -0.440206584623210 43
-1.341257843035750 -2.447828693732649 -0.442083798203692 43
-1.355623945443031 -2.455708540820055 -0.444273880714256 39
-1.359384231162807 -2.442331422789306 -0.442709536063853 41
-1.367359677267343 -2.435610129288404 -0.442396667133773 39
-1.383637389381864 -2.444575199108606 -0.444899618574417 36
-1.386842697662900 -2.431394078884336 -0.443335273924014 36
-1.398275500895928 -2.431675624442811 -0.444273880714256 36
-1.402792423620694 -2.419943917719121 -0.443022404993934 36
-1.416214218505851 -2.423560172420431 -0.444586749644336 34
-1.429099004129388 -2.425160677810871 -0.445838225364658 35
-1.439573310139764 -2.423554128604276 -0.446463963224819 35
-1.452674377055592 -2.427242012982762 -0.448028307875221 36
-1.457056791062274 -2.415390645396505 -0.446776832154899 35
-1.467110406357637 -2.413921704592145 -0.447402570015060 35
-1.484814164948671 -2.423946017659266 -0.450218390385784 36
-1.496802411355092 -2.423529637792922 -0.451156997176026 35
-1.509428448538011 -2.424998212864440 -0.452408472896348 36
-1.514313472194877 -2.414958730067086 -0.451469866106106 35
-1.525899792792771 -2.414667760998721 -0.452408472896348 35
-1.541746808210850 -2.420990072840781 -0.454598555406911 36
-1.553388911752220 -2.420581083686853 -0.455537162197152 36
-1.570410329973791 -2.428414019439495 -0.458040113637796 35
-1.579955977574437 -2.424572467941088 -0.458352982567876 37
-1.589493927954213 -2.420693844678905 -0.458665851497957 36
-1.605564014162080 -2.426662729865212 -0.460855934008520 37
-1.610737646522161 -2.416112639385972 -0.459917327218279 35
-1.632379286404985 -2.430152746126635 -0.463671754379244 36
-1.635579302087256 -2.418467248583029 -0.462420278658922 36
-1.648460650207660 -2.419273029012603 -0.463671754379244 36
-1.664721537894206 -2.424903905353944 -0.465861836889808 36
-1.678794345059998 -2.427201333182996 -0.467426181540210 36
-1.694032762087405 -2.431050662635954 -0.469303395120693 35
-1.701373386301517 -2.423505825602316 -0.468990526190612 35
-1.712103919362135 -2.420777712604735 -0.469616264050773 35
-1.726274904170641 -2.422830532500083 -0.471180608701175 35
-1.738906182094226 -2.423512577950369 -0.472432084421497 34
-1.754298359039854 -2.427033571522847 -0.474309298001980 34
-1.765085139793779 -2.424088934216276 -0.474935035862141 34
-1.773536035759928 -2.417912868895731 -0.474935035862141 33
-1.791356443339424 -2.424417262186235 -0.477437987302785 33
-1.804526040468773 -2.424488021678131 -0.478689463023106 34
-1.817717901220641 -2.424496303750556 -0.479940938743428 33
-1.828550824067209 -2.421289233681370 -0.480566676603589 33
-1.841775392789119 -2.421180429172444 -0.481818152323911 34
-1.855021423939055 -2.421008725962864 -0.483069628044233 35
-1.870279369758836 -2.424228050298219 -0.484946841624716 34
-1.883578446220392 -2.423923974291444 -0.486198317345038 35
-1.892028044467176 -2.417334291148117 -0.486198317345038 33
-1.911461082707717 -2.424676824322769 -0.489014137715762 35
-1.922369841694055 -2.421083844890790 -0.489639875575923 34
-1.945614217169693 -2.432871426930314 -0.493394302736888 33
-1.956572912993234 -2.429141954606536 -0.494020040597049 33
-1.965040280683118 -2.422297441434743 -0.494020040597049 33
-1.973483704977309 -2.415423413333059 -0.494020040597049 31
-1.990689227125157 -2.419197369941811 -0.496210123107612 33
-2.012986956620131 -2.428964328641496 -0.499651681338497 36
-2.026516487350176 -2.427989076117603 -0.500903157058819 38
-2.038369258129090 -2.425792573896443 -0.501841763849061 39
-2.050652661221434 -2.423186241691971 -0.502780370639302 37
-2.064223989803877 -2.422027088571363 -0.504031846359624 36
-2.082958434055520 -2.426798438398710 -0.506534797800268 36
-2.101751215051414 -2.431468362919340 -0.509037749240911 34
-2.110225818945868 -2.424117068728734 -0.509037749240911 34
-2.123883498875237 -2.422677813926966 -0.510289224961233 34
-2.140171528253814 -2.424134354544572 -0.512166438541716 34
-2.153870438839988 -2.422554060904742 -0.513417914262038 34
-2.170219691148919 -2.423850949083143 -0.515295127842521 36
-2.183958526274810 -2.422128973002729 -0.516546603562842 37
-2.197711718734209 -2.420340544309622 -0.517798079283164 37
-2.216387891989834 -2.424703600374406 -0.520301030723808 37
-2.235540953426540 -2.428579140523476 -0.522803982164452 40
-2.251638070474115 -2.429846012080451 -0.524681195744934 41
-2.260106098145302 -2.421971525009757 -0.524681195744934 41
-2.279791824294685 -2.425185789343845 -0.527184147185578 41
-2.299107476913471 -2.428689438184617 -0.529687098626222 40
-2.315749221348040 -2.429228051421719 -0.531564312206705 40
-2.337894599530235 -2.435380100852073 -0.534693001507509 40
-2.343212340689468 -2.424772996455715 -0.534067263647348 40
-2.355795076147492 -2.420825949504951 -0.535005870437590 38
-2.376250975912386 -2.425700543837083 -0.537821690808314 40
-2.402738183009395 -2.435672709907039 -0.541888986899360 37
-2.417643366343753 -2.432032687082829 -0.543140462619682 36
-2.426118015574060 -2.423578720069201 -0.543140462619682 36
-2.447184686230911 -2.427615877469132 -0.545956282990406 32
-2.455643737942661 -2.419058818914145 -0.545956282990406 6
nan nan nan 0
nan nan nan 0
-2.414629914793874 -2.330966700013267 -0.531564312206705 1
nan nan nan 0
nan nan nan 0
nan nan nan 0
nan nan nan 0
nan nan nan 0
nan nan nan 0
nan nan nan 0
nan nan nan 0
nan nan nan 0
nan nan nan 0
nan nan nan 0
nan nan nan 0
nan nan nan 0
nan nan nan 0
nan nan nan 0
nan nan nan 0
nan nan nan 0
nan nan nan 0
nan nan nan 0
nan nan nan 0
nan nan nan 0
nan nan nan 0
nan nan nan 0
nan nan nan 0
nan nan nan 0
nan nan nan 0
nan nan nan 0
nan nan nan 0
nan nan nan 0
nan nan nan 0
-2.339403034492065 -1.815281060484236 -0.468990526190612 1
-2.345409860584789 -1.807513339429365 -0.468990526190612 1
-2.351704970541613 -1.799315319190421 -0.468990526190612 1
-2.358283994915062 -1.790683803933824 -0.468990526190612 1
-2.364520280396357 -1.782440947110952 -0.468990526190612 1
-2.370418066645565 -1.774590114833213 -0.468990526190612 1
-2.376598100743307 -1.766305000243944 -0.468990526190612 1
-2.382749176743202 -1.757998363785657 -0.468990526190612 1
-2.388871219696326 -1.749670306672100 -0.468990526190612 1
-2.394964155007520 -1.741320930378020 -0.468990526190612 1
nan nan nan 0
nan nan nan 0
nan nan nan 0
nan nan nan 0
nan nan nan 0
nan nan nan 0
nan nan nan 0
nan nan nan 0
nan nan nan 0
nan nan nan 0
nan nan nan 0
nan nan nan 0
nan nan nan 0
nan nan nan 0
nan nan nan 0
nan nan nan 0
nan nan nan 0
nan nan nan 0
nan nan nan 0
nan nan nan 0
nan nan nan 0
nan nan nan 0
nan nan nan 0
nan nan nan 0
nan nan nan 0
nan nan nan 0
nan nan nan 0
nan nan nan 0
-2.387011296128235 -1.392622203490590 -0.437703633182566 1
nan nan nan 0
nan nan nan 0
nan nan nan 0
nan nan nan 0
nan nan nan 0
nan nan nan 0
nan nan nan 0
nan nan nan 0
nan nan nan 0
nan nan nan 0
nan nan nan 0
nan nan nan 0
nan nan nan 0
-2.627234138778932 -1.365903608011187 -0.468990526190612 1
nan nan nan 0
nan nan nan 0
nan nan nan 0
nan nan nan 0
nan nan nan 0
nan nan nan 0
nan nan nan 0
nan nan nan 0
nan nan nan 0
nan nan nan 0
nan nan nan 0
nan nan nan 0
nan nan nan 0
nan nan nan 0
nan nan nan 0
nan nan nan 0
-2.836419989616971 -1.268791976770582 -0.492142827016566 3
-2.858891579123641 -1.266886365835796 -0.495271516317371 1
-2.747534594241477 -1.206083364629878 -0.475247904792221 1
-2.737235559234592 -1.190183894338311 -0.472744953351578 3
-2.784706688977343 -1.199860382119496 -0.480253807673509 1
-2.779793724714136 -1.186255978290758 -0.478689463023106 1
-2.712954989996782 -1.146555085835588 -0.466487574749968 6
-2.766140819024289 -1.157669072333828 -0.474935035862141 1
-2.824911329529046 -1.170694259295194 -0.484321103764555 1
-2.735777755393380 -1.122582067444041 -0.468364788330451 4
-2.792752916882156 -1.134587199613356 -0.477437987302785 2
-2.798529048367352 -1.125568871643531 -0.477750856232865 6
-2.851992968732687 -1.135522479966897 -0.486198317345038 15
-2.837561318751509 -1.118317261239584 -0.483069628044233 15
-2.848808950525580 -1.111277027501976 -0.484321103764555 12
-2.821342896601016 -1.089231392213059 -0.479002331953187 16
-2.811835634017510 -1.075422914973831 -0.476812249442624 16
-2.824809872227934 -1.069097292105616 -0.478376594093026 18
-2.837774098124042 -1.062694153241824 -0.479940938743428 17
-2.822943055884891 -1.045919013123262 -0.476812249442624 9
-2.811739122762086 -1.030620102345170 -0.474309298001980 6
-2.833890237492899 -1.027532525092374 -0.477437987302785 2
-2.813287399727576 -1.008964912787247 -0.473370691211739 4
-2.770249042344929 -0.982629330835713 -0.465548967959727 7
-2.829582790002144 -0.992569365956006 -0.474935035862141 3
-2.833030264877460 -0.982686231713346 -0.474935035862141 3
-2.836273392891973 -0.973286161662481 -0.474935035862141 2
-2.820946971159897 -0.957033414906841 -0.471806346561336 1
-2.739991827392926 -0.918915967470509 -0.457727244707716 4
-2.782558578691126 -0.922398826350414 -0.464297492239405 3
-2.823305353327233 -0.924980537850169 -0.470554870841014 2
-2.811482272847676 -0.910252069598799 -0.468051919400371 2
-2.829694081272597 -0.905247767154734 -0.470554870841014 1
-2.832836746207453 -0.895364776426105 -0.470554870841014 2
-2.820860080655009 -0.880760924492365 -0.468051919400371 2
-2.808816162215179 -0.866251652414256 -0.465548967959727 3
-2.804264168974121 -0.854139513960150 -0.464297492239405 2
-2.826145222428638 -0.850035261947716 -0.467426181540210 2
-2.806226023905418 -0.833906473740829 -0.463671754379244 3
-2.812910789119887 -0.825217990080884 -0.464297492239405 7
-2.804389668442759 -0.812097330014400 -0.462420278658922 9
-2.807207331835524 -0.802303235674568 -0.462420278658922 11
-2.836607753123771 -0.800006125412936 -0.466800443680049 5
-2.879347520282447 -0.801220348059788 -0.473370691211739 6
-2.916415114618427 -0.800577070124166 -0.479002331953187 6
-2.936352383243381 -0.795038332102351 -0.481818152323911 6
-2.962011849131591 -0.790898903562557 -0.485572579484877 5
-3.004870435863574 -0.791116364063590 -0.492142827016566 4
-3.042030071345880 -0.789555333257652 -0.497774467758015 4
-3.083042491971252 -0.788723583110711 -0.504031846359624 4
nan nan nan 0
-2.871715003180071 -0.713869871962155 -0.468677657260532 1
-2.789767260659228 -0.683167788586080 -0.454911424336991 1
-2.753728706934218 -0.664162446884552 -0.448654045735382 3
-2.732967274883816 -0.649068720403678 -0.444899618574417 3
-2.694822807735934 -0.630080468977978 -0.438329371042727 6
nan nan nan 0
-2.652917675992586 -0.600780731031318 -0.430820516720796 21
-2.658854836779204 -0.592375798242887 -0.431446254580957 27
-2.658976824234820 -0.582668217735727 -0.431133385650876 26
-2.655201349895334 -0.572134812570471 -0.430194778860635 26
-2.639789830751281 -0.559178750760618 -0.427378958489911 23
-2.643659559703476 -0.550363364647912 -0.427691827419991 6
nan nan nan 0
-2.660900755119888 -0.535081970278265 -0.429881909930554 20
-2.653062545783406 -0.523877076644661 -0.428317565280152 31
-2.645089122837923 -0.513195109998765 -0.426753220629750 33
-2.641042844034718 -0.502850485347006 -0.425814613839508 30
-2.652577431640478 -0.494978984393967 -0.427378958489911 33
-2.650402849136990 -0.485005593749868 -0.426753220629750 34
-2.646163775705173 -0.475166483231357 -0.425814613839508 31
-2.649751780816066 -0.466269094505034 -0.426127482769589 14
nan nan nan 0
-2.754310524163758 -0.464373476190978 -0.442396667133773 2
-2.779222867683916 -0.459100700067422 -0.446151094294738 2
-2.792508952721366 -0.451287474137592 -0.448028307875221 2
-2.813578869708551 -0.444620408695625 -0.451156997176026 2
-2.826827115306846 -0.436605616145970 -0.453034210756509 1
-2.808727230612033 -0.424278641675646 -0.449905521455704 1
-2.794557241062300 -0.412165945670175 -0.447402570015060 2
-2.811620783547088 -0.404659846401558 -0.449905521455704 3
-2.820840982271815 -0.395941304532497 -0.451156997176026 3
-2.828144813583066 -0.386401964639907 -0.452095603966267 4
-2.851015644668015 -0.379393842485076 -0.455537162197152 2
-2.903191264209903 -0.376543473726716 -0.463671754379244 1
-5.652188443800143 -0.713035238518098 -0.902313994352052 4
-5.697900085548410 -0.697595318788213 -0.909197110813822 4
-5.719916058421002 -0.680033763178536 -0.912325800114626 4
-5.725948788144035 -0.662514878973547 -0.912951537974787 6
-5.720374248308341 -0.641642778947912 -0.911700062254466 6
-5.710904404989580 -0.619394269509632 -0.909822848673983 6
-5.718925475796721 -0.600074140022664 -0.910761455464224 8
-5.724814477066902 -0.581505448821872 -0.911387193324385 8
-5.716979687363882 -0.560554759412080 -0.909822848673983 6
-5.750367317064383 -0.543569750966321 -0.914828751555270 4
-3.245957250008862 -0.295405251040024 -0.516233734632762 2
-5.730407669272310 -0.501345708443340 -0.911074324394305 6
-5.710469844446007 -0.479521550568205 -0.907632766163420 8
-5.719904541400838 -0.461217380545765 -0.908884241883741 8
-5.715571058057949 -0.440792699582240 -0.907945635093500 6
-5.717148253679973 -0.419841123710744 -0.907945635093500 6
-5.714637812343245 -0.399606403629001 -0.907319897233339 6
-5.723815577407944 -0.381178824269223 -0.908571372953661 4
-5.740882924753777 -0.362191689164715 -0.911074324394305 4
-3.237825648578119 -0.192929395921143 -0.513730783192118 3
-5.715659695360027 -0.320555686574888 -0.906694159373178 6
-5.722609169551719 -0.301912328912114 -0.907632766163420 8
-5.731520114351837 -0.282323597376705 -0.908884241883741 8
-5.728524065696454 -0.262134542945837 -0.908258504023580 8
-5.731377800825990 -0.242220074411964 -0.908571372953661 6
-5.724292812863033 -0.221906279066448 -0.907319897233339 6
-5.736877430881405 -0.202341188914587 -0.909197110813822 4
-3.230085962848031 -0.102638179484705 -0.511853569611635 2
-5.734201049457504 -0.162173933323338 -0.908571372953661 6
-5.722883587149031 -0.141863135799294 -0.906694159373178 6
-5.723343916139538 -0.121885679827883 -0.906694159373178 6
-5.719766519732212 -0.102834698849035 -0.906068421513017 6
-5.726001575844459 -0.083953582623216 -0.907007028303259 8
-5.738111264459271 -0.064097983907772 -0.908884241883741 12
-5.761996060021557 -0.045255541764047 -0.912638669044707 8
-5.744340706397402 -0.025064573735648 -0.909822848673983 4
-3.239615980833011 -0.003392519162051 -0.513105045331957 3
-5.746351073091607 0.015043946300018 -0.910135717604063 12
-5.742318906377346 0.034076006331902 -0.909509979743902 12
-5.742164974745764 0.054120232346426 -0.909509979743902 8
-5.716276120649181 0.072834463789285 -0.905442683652856 6
-5.731804139099473 0.092043656581103 -0.907945635093500 6
-5.727517383941545 0.110973964207344 -0.907319897233339 6
-5.730998742832117 0.133056880210498 -0.907945635093500 4
-5.746323452130139 0.152480014353163 -0.910448586534144 4
-5.753684202868768 0.171770457714951 -0.911700062254466 4
-5.733340049289931 0.190194477988251 -0.908571372953661 6
-5.701056417101843 0.209048248772361 -0.903565470072373 2
nan nan nan 0
-2.774714977272102 0.121631878204580 -0.439893715693129 3
-2.707208127057569 0.127668694412220 -0.429256172070394 3
-2.706745986910397 0.137117836490862 -0.429256172070394 6
-2.712193919176267 0.146412421004258 -0.430194778860635 6
-2.707694871256380 0.156124703957526 -0.429569041000474 7
-2.695331975917293 0.164381386890161 -0.427691827419991 4
-2.700655601294138 0.174170244494706 -0.428630434210233 5
-2.696089529007392 0.183328206992230 -0.428004696350072 7
-2.697403514525676 0.192879089320269 -0.428317565280152 7
-2.696713807354285 0.202293609630264 -0.428317565280152 7
-2.703868498673556 0.212324235297679 -0.429569041000474 6
-2.689329538575600 0.220630593492458 -0.427378958489911 5
-2.698383943184205 0.230858696731871 -0.428943303140313 4
-2.691658895733090 0.239750639046503 -0.428004696350072 3
-2.694739537650834 0.249509068152078 -0.428630434210233 3
-2.701717433007253 0.259669897560657 -0.429881909930554 3
-2.689094052715416 0.266985309619959 -0.428004696350072 3
-2.680285641988895 0.275562272508977 -0.426753220629750 5
-2.687164627448035 0.285752068923999 -0.428004696350072 5
-2.680260113888772 0.294483067501378 -0.427066089559830 6
-2.677253051598241 0.303614535867516 -0.426753220629750 6
-2.680100941438578 0.313416926058769 -0.427378958489911 6
-2.677029390417371 0.322534026095969 -0.427066089559830 4
-2.691570082727503 0.333821702080914 -0.429569041000474 4
-2.686469436950598 0.342715052224754 -0.428943303140313 6
-2.681339547686901 0.351576866819605 -0.428317565280152 6
-2.744700192567585 0.369634736234438 -0.438642239972807 6
nan nan nan 0
nan nan nan 0
-2.922478638240712 0.424780872558861 -0.467739050470290 49
-2.940516386406634 0.437889201644585 -0.470867739771095 51
-2.931158737390610 0.446959752950621 -0.469616264050773 53
-2.925756837407896 0.456068870571543 -0.468990526190612 51
-2.929999230781704 0.467212069187520 -0.469929132980854 47
-2.869861481004465 0.467900806854416 -0.460543065078440 18
-2.714278213634612 0.452266637024363 -0.435826419602083 9
-2.658156681248882 0.452457305256535 -0.427066089559830 13
-2.631260534057565 0.457335787616768 -0.422998793468784 16
-2.623731803712396 0.465940576692967 -0.422060186678543 15
-2.600708372371744 0.471222246707557 -0.418618628447658 17
-2.597188893853993 0.479485287778358 -0.418305759517577 19
-2.574145209115133 0.484528778175624 -0.414864201286692 19
-2.564678210889711 0.492022548098265 -0.413612725566370 17
-2.572638545165210 0.502866698337094 -0.415177070216773 15
-2.559243420928380 0.509529529015961 -0.413299856636290 14
-2.541961280113813 0.515320049177040 -0.410796905195646 15
-2.528539312399553 0.521794625747866 -0.408919691615163 14
-2.503504011750966 0.525745919267643 -0.405165264454198 14
-2.486199333300636 0.531179759379106 -0.402662313013554 20
-2.493981654936231 0.541952317160251 -0.404226657663957 24
-2.492074694123645 0.550654635994619 -0.404226657663957 20
-2.497846771783979 0.561081979781523 -0.405478133384278 19
-2.499724668323273 0.570676991244946 -0.406103871244439 19
-2.509263093779848 0.582077452423186 -0.407981084824922 19
-2.507319058608636 0.590395268242372 -0.407981084824922 19
-2.516770110429750 0.601900645020129 -0.409858298405405 19
-2.510814586032922 0.609749806030238 -0.409232560545244 19
-2.520178529787464 0.621347673703370 -0.411109774125727 19
-2.533324522155308 0.633977427591978 -0.413612725566370 18
-2.531096094070547 0.642816518013018 -0.413612725566370 18
-2.544254306154388 0.655147135354990 -0.416115677007014 19
-2.541951915411280 0.664024248868910 -0.416115677007014 18
-2.543319869678373 0.674349044363294 -0.416741414867175 17
-2.550488559775099 0.685787429172307 -0.418305759517577 15
nan nan nan 0
-7.090812147489701 1.958461997810685 -1.165123895619639 2
-7.049692363774359 1.973615790122022 -1.159492254878191 2
nan nan nan 0
nan nan nan 0
nan nan nan 0
nan nan nan 0
nan nan nan 0
nan nan nan 0
-3.044842963159957 0.932064234832900 -0.504344715289704 1
-2.879147675231048 0.892897324719881 -0.477437987302785 2
-2.860935944883982 0.898208344974275 -0.474935035862141 3
-2.797695184019571 0.888556158848436 -0.464923230099566 3
-2.764486846933978 0.888644206222844 -0.459917327218279 3
-2.740549109690029 0.892045093986038 -0.456475768987394 4
-2.705522696219427 0.891100613926773 -0.451156997176026 5
-2.674595694087340 0.890238059572298 -0.446463963224819 4
-2.624669648274127 0.883808928864271 -0.438642239972807 7
-2.610038793803131 0.890054945811330 -0.436765026392325 15
-2.619987949469446 0.903668942148032 -0.438955108902888 4
-2.656309163943320 0.925544586891731 -0.445525356434577 2
-2.660514649263524 0.937437071650050 -0.446776832154899 1
-2.638618148025217 0.940088609788507 -0.443648142854095 1
-2.627886642558791 0.946615541162310 -0.442396667133773 1
-2.657807669110420 0.968413666446473 -0.448028307875221 2
-2.661825638397082 0.980416211016682 -0.449279783595543 1
-2.662089619449465 0.991080158101791 -0.449905521455704 2
-2.662311540649602 1.001757877385151 -0.450531259315865 2
-2.659151292668084 1.010116818531856 -0.450531259315865 1
-2.640855742470126 1.013729541251029 -0.448028307875221 2
-2.622389971913471 1.017684623044639 -0.445525356434577 1
-2.563649809498919 1.005199569864022 -0.436139288532164 2
-2.562139010575053 1.014422596719946 -0.436452157462244 6
-2.622776229267806 1.049035648360756 -0.447402570015060 2
-2.640890602949889 1.067525263003215 -0.451156997176026 2
-2.633490529435182 1.075243793636804 -0.450531259315865 2
-2.633563066048973 1.085476365952685 -0.451156997176026 2
-2.542220981001902 1.058224458587301 -0.436139288532164 3
-2.633205002808339 1.106897459946824 -0.452408472896348 2
-2.640235230171878 1.120713364077330 -0.454285686476830 2
-2.629241196592646 1.126351070503463 -0.453034210756509 2
-2.636171767295288 1.140227174436273 -0.454911424336991 13
-2.628354595994201 1.148299887998966 -0.454285686476830 6
-2.635174608482009 1.162250485662619 -0.456162900057313 3
-2.611453855334035 1.162148074952537 -0.452721341826428 4
-2.614588980076724 1.174494421523586 -0.453972817546750 4
-2.605076043495064 1.181166716214241 -0.453034210756509 3
-2.565012585199558 1.173812974888893 -0.446776832154899 3
-2.535792727653475 1.171163708150435 -0.442396667133773 3
-2.510203815121987 1.169993928128971 -0.438642239972807 10
-2.486849831084288 1.168632655819361 -0.435200681741922 22
-2.497034358133101 1.184077254152614 -0.437703633182566 19
-2.531876374963770 1.211985414079313 -0.444586749644336 13
-2.502727569420791 1.208788184966857 -0.440206584623210 14
-2.523782557917828 1.228750675438443 -0.444586749644336 15
-2.519478041886646 1.237552834626350 -0.444586749644336 15
-2.522222750320295 1.249848260618233 -0.445838225364658 16
-2.514310782494708 1.256878327444988 -0.445212487504497 15
-2.513214523625957 1.267864754238103 -0.445838225364658 15
-2.515815709700097 1.280213308011576 -0.447089701084980 15
-2.518361223700042 1.292595426320574 -0.448341176805302 14
-2.524359354260026 1.306827169719981 -0.450218390385784 15
-2.516280167220485 1.313802331725677 -0.449592652525624 14
-2.511678811212048 1.322577784519083 -0.449592652525624 15
-2.515770048306112 1.335969471187487 -0.451156997176026 12
-2.498901553970855 1.338215129602795 -0.448966914665463 26
-2.487496961772036 1.342741133243877 -0.447715438945141 26
-2.487999786325748 1.354249094697245 -0.448654045735382 19
-2.484989116793619 1.363876020374668 -0.448966914665463 20
-2.488855019334846 1.377324318056936 -0.450531259315865 19
-2.487724343238668 1.387494488622153 -0.451156997176026 19
-2.491475032728332 1.401010902151099 -0.452721341826428 22
-2.488287843952948 1.410673459564693 -0.453034210756509 23
-2.486778554529396 1.421311039763572 -0.453659948616670 23
-2.485225278145268 1.431955247879644 -0.454285686476830 18
-2.488752354521434 1.445582397162237 -0.455850031127233 20
-2.492214473262052 1.459251557509913 -0.457414375777635 25
-2.483703218148685 1.465933990474116 -0.456788637917474 22
-2.487317487795979 1.479210687588294 -0.458352982567876 26
-2.485527510890203 1.489915275041570 -0.458978720428037 27
nan nan nan 0
-2.613412670904343 1.591479853490721 -0.484633972694635 4
-2.599423625077060 1.595426134878216 -0.483069628044233 8
-2.590478817298524 1.602411741704267 -0.482443890184072 9
-2.577048545158364 1.605319799474389 -0.480879545533670 6
-2.564737159591038 1.610104411788261 -0.479628069813348 7
-2.542407801514330 1.608485906425741 -0.476499380512543 11
-2.515124261012741 1.603545408547657 -0.472432084421497 14
-2.501201879170734 1.606976269667866 -0.470867739771095 19
-2.532057445962515 1.639315469857633 -0.477750856232865 21
-2.538189709853981 1.655256382591362 -0.479940938743428 25
-2.538999703542510 1.668445493767655 -0.481192414463750 21
-2.525987961618178 1.673817646303837 -0.479940938743428 25
-2.536558345190850 1.693593663162409 -0.483069628044233 26
-2.534504044319668 1.703758211228890 -0.483695365904394 26
-2.538354603803569 1.719241453490937 -0.485572579484877 24
-2.542127832645313 1.734772256444800 -0.487449793065359 26
-2.526290273790551 1.736920471007140 -0.485572579484877 23
-2.536450377595234 1.756976537089856 -0.488701268785681 29
-2.523822285602957 1.761297751640649 -0.487449793065359 18
-2.518965611894621 1.771672608484841 -0.487762661995440 19
-2.520824877055619 1.786164891544043 -0.489327006645842 35
-2.495281228758759 1.781181310101973 -0.485572579484877 35
-2.498671153939659 1.796800257043167 -0.487449793065359 17
-2.510615529340369 1.817382553305035 -0.490891351296244 19
-2.502660300454419 1.824971280094213 -0.490578482366164 19
-2.507418798358089 1.841882219662758 -0.492768564876727 32
-2.496210393235531 1.847098526075845 -0.491829958086486 35
-2.496082844028225 1.860522812379088 -0.493081433806808 34
-2.495891914155993 1.873968656997544 -0.494332909527130 32
-2.498788509149460 1.889818906738989 -0.496210123107612 24
-2.501604745220944 1.905712125091042 -0.498087336688095 21
-2.482399954355460 1.904812479934683 -0.495584385247451 25
-2.428846858847628 1.877226180426020 -0.486198317345038 24
-2.440984178866161 1.900254337365431 -0.489952744506003 21
-2.546259684686799 1.996522621347404 -0.512479307471796 19
-2.578030731045218 2.036005988992715 -0.520301030723808 16
-2.583275604841341 2.054830198742610 -0.522803982164452 18
-2.570279900348735 2.058446068490780 -0.521552506444130 11
nan nan nan 0
-2.450055820737989 1.990396423766542 -0.499964550268578 1
-2.351362458969672 1.923882648918755 -0.481192414463750 1
-2.365975088764139 1.949665907123558 -0.485572579484877 5
-2.336353958227069 1.938989696868975 -0.480879545533670 7
-2.320477419550260 1.939532240345794 -0.479002331953187 4
-2.333339040781098 1.964158001594565 -0.483069628044233 1
-2.332495755187620 1.977400470435875 -0.484321103764555 1
nan nan nan 0
nan nan nan 0
nan nan nan 0
nan nan nan 0
nan nan nan 0
nan nan nan 0
nan nan nan 0
nan nan nan 0
nan nan nan 0
nan nan nan 0
nan nan nan 0
-2.574127752380114 2.372011552027423 -0.554403744102578 9
-2.564384217860592 2.379638814029998 -0.554090875172498 15
-2.550288955289973 2.383180824641584 -0.552839399452176 13
-2.539077422982867 2.389360984039420 -0.552213661592015 9
-2.522535613603460 2.389616678903180 -0.550336448011532 6
-2.511320280873166 2.395680400641956 -0.549710710151371 5
-2.517188042232068 2.418116820680351 -0.552839399452176 5
-2.511571441850233 2.429635617590050 -0.553465137312337 5
-2.506331083746469 2.440707233712562 -0.554090875172498 5
-2.492154606400492 2.443908757750619 -0.552839399452176 5
-2.485991111125972 2.455803033059146 -0.553465137312337 5
-2.484405884661820 2.471431503078710 -0.555029481962739 4
-2.473405008843342 2.476860946995957 -0.554403744102578 4
-2.461962203647452 2.482674370031953 -0.553778006242417 4
-2.444964846766120 2.482808170829364 -0.551900792661934 2
-2.439045559349878 2.494152199141997 -0.552526530522095 4
-2.409171217541017 2.479135979909079 -0.547520627640808 2
-2.395015877121795 2.481844669191566 -0.546269151920486 3
-2.406400826493327 2.512003131365827 -0.550962185871693 5
-2.386725565274878 2.508937931522146 -0.548459234431049 5
-2.383819526503290 2.522581733107276 -0.549710710151371 5
-2.372296078647583 2.528006528559067 -0.549084972291210 5
-2.369287669166489 2.541639182638967 -0.550336448011532 5
-2.355033660159515 2.544095547089307 -0.549084972291210 5
-2.358610932598803 2.567667139754791 -0.552213661592015 8
-2.334990122536226 2.559830913601690 -0.548772103361130 6
-2.322509407868786 2.563168451428017 -0.547833496570889 5
-2.313548130764254 2.571259906480117 -0.547833496570889 5
-2.301926386634181 2.576373920711838 -0.547207758710728 5
-2.281120241437872 2.571094681565197 -0.544391938340003 3
-2.275193804658720 2.581608971914986 -0.545017676200164 3
-2.263566645645978 2.586562092467418 -0.544391938340003 3
-2.249341254643929 2.588483408875196 -0.543140462619682 3
-2.242873039245981 2.599310456455560 -0.543766200479842 8
-2.238927137857551 2.613123993230013 -0.545017676200164 3
-2.228511974216691 2.619418838923950 -0.544704807270084 5
-2.214713326948229 2.620759309029613 -0.543453331549762 8
-2.204281929310587 2.626960908346387 -0.543140462619682 8
-2.192569779710758 2.631603985123563 -0.542514724759521 8
-2.182111257164982 2.637719395403721 -0.542201855829440 7
-2.169129108492074 2.640740995616933 -0.541263249039199 6
-2.164891970906912 2.654419810000274 -0.542514724759521 6
-2.151104043332931 2.655444499513452 -0.541263249039199 8
-2.150488037576936 2.673711965912926 -0.543453331549762 5
-2.143138743338393 2.684663534417669 -0.544079069409923 5
-2.126392456993540 2.682839590131339 -0.542201855829440 5
-2.133368334449320 2.710054162416133 -0.546269151920486 8
-2.128761222779779 2.723710120166416 -0.547520627640808 3
-2.124084709866144 2.737366859572436 -0.548772103361130 4
-2.106077798044676 2.733810601169401 -0.546582020850567 5
-2.102522536960021 2.748990822749919 -0.548146365500969 12
-2.103665229304513 2.770472391624699 -0.550962185871693 19
-2.107061613262580 2.795150057946861 -0.554403744102578 23
-2.103209748300322 2.810395744186725 -0.555968088752981 6
-2.102811186807456 2.830405485067903 -0.558471040193624 22
-2.096435926794281 2.842497713580012 -0.559409646983866 20
-2.103339488074135 2.871745122009858 -0.563789812004992 23
-2.106080618262403 2.896644438311299 -0.567231370235877 22
-2.105205178797639 2.916792409114402 -0.569734321676521 12
-2.103064156750648 2.935363627983071 -0.571924404187084 4
-2.149520361976042 3.023551262056693 -0.587567850691107 1
nan nan nan 0
-2.948877609655653 4.209869656838928 -0.814084956069361 4
-2.970249492200987 4.272037743421503 -0.824096761831936 16
-2.962800209931742 4.291617633010872 -0.825973975412419 4
nan nan nan 0
nan nan nan 0
-2.429203677215949 3.598732219282637 -0.687685908316855 1
nan nan nan 0
-2.062776713081709 3.102378552085386 -0.590070802131751 3
nan nan nan 0
nan nan nan 0
nan nan nan 0
nan nan nan 0
nan nan nan 0
nan nan nan 0
nan nan nan 0
nan nan nan 0
nan nan nan 0
nan nan nan 0
nan nan nan 0
nan nan nan 0
nan nan nan 0
nan nan nan 0
nan nan nan 0
-1.974156881821533 3.358151177848512 -0.616977530118671 1
-1.941938471861693 3.331232785026355 -0.610720151517061 11
-1.947109469478646 3.367061739679114 -0.616038923328429 24
-1.943207626166013 3.387545729693905 -0.618541874769073 24
-1.932347966288968 3.396025050464137 -0.618854743699153 26
-1.931759150906293 3.421335688805470 -0.622296301930038 24
-1.935248067806592 3.455634074940473 -0.627302204811326 24
-1.942008448070642 3.494839879911372 -0.633246714482855 22
-1.950773407058222 3.539658304674234 -0.640129830944625 21
-1.956406644966967 3.579379972275435 -0.646074340616153 15
nan nan nan 0
-2.003387586237767 3.726925370780865 -0.670165248232349 1
nan nan nan 0
nan nan nan 0
nan nan nan 0
nan nan nan 0
nan nan nan 0
nan nan nan 0
-3.299812682042004 6.512735490378826 -1.156363565577387 2
-3.233849619086921 6.435389518208873 -1.140720119073364 6
-3.232505214517178 6.489073914109381 -1.148228973395295 6
-3.272806654467391 6.627844602625640 -1.170755536361088 4
-3.286125124930838 6.713746781795966 -1.183896031424467 2
-3.301144147061469 6.807507119650024 -1.198288002208169 2
nan nan nan 0
nan nan nan 0
-3.285331396293057 6.959601522315872 -1.218937351593479 2
-0.884549343443833 1.889168911909072 -0.330389590164968 5
-0.879612307520600 1.895828853317383 -0.331015328025129 2
-3.267513655569104 7.113893418319481 -1.239899569908870 8
-3.245116328844793 7.130649664056630 -1.240838176699111 6
-3.242200714283634 7.184021451696790 -1.248347031021042 6
-3.220329214004453 7.202508405089106 -1.249598506741364 6
-3.187168228247844 7.195644215708361 -1.246469817440560 6
-3.101711450584593 7.069247972131032 -1.222691778754444 10
-3.064761866869694 7.055203435140898 -1.218311613733318 19
-3.043238811484760 7.073116668563805 -1.219563089453640 23
-3.022090867969750 7.088620909260112 -1.220501696243881 19
-3.032672595168849 7.182838614478750 -1.234893667027583 8
-3.017984486868890 7.214724148280501 -1.238648094188548 8
-2.992026069287398 7.223389915447503 -1.238335225258468 6
-2.963795229213345 7.226479477305729 -1.237083749538146 6
-2.947470267579677 7.258743943753617 -1.240838176699111 6
-2.917899957595458 7.262166388084271 -1.239586700978790 6
-2.883771664061686 7.250281344923462 -1.235832273817824 6
-2.858445890300428 7.260303415368732 -1.235832273817824 4
-2.833085287278068 7.270237021308096 -1.235832273817824 4
-2.818916545450842 7.305392981649423 -1.240212438838950 4
-2.794808175146723 7.318879141192255 -1.240838176699111 4
-2.784604903590213 7.369243048339109 -1.247721293160881 6
-2.757480897159370 7.375217676635067 -1.247095555300721 4
-2.727523416912316 7.369500747039230 -1.244592603860077 4
-2.697707355055076 7.367847004739172 -1.242715390279594 4
-2.670684725844717 7.377685108074346 -1.242715390279594 4
-2.644915528155861 7.386962590109838 -1.242715390279594 4
-2.624363250425479 7.406864571479151 -1.244592603860077 4
-2.591960321539277 7.397337699497920 -1.241463914559272 4
-2.568709820663834 7.413806331162651 -1.242715390279594 6
-2.544735712897514 7.428333924042201 -1.243653997069835 12
-2.519483461116018 7.430679480903822 -1.242715390279594 19
-2.491646868747926 7.433809945206125 -1.241776783489352 19
-2.462576673147503 7.433086386920237 -1.240212438838950 10
-2.441532844878212 7.456655538922471 -1.242715390279594 8
-2.416705643516853 7.468891528980052 -1.243341128139755 6
-2.396635274121726 7.496097408454960 -1.246469817440560 6
-2.365694461357599 7.489348446413502 -1.243966865999916 4
-2.336006855034122 7.486246407151328 -1.242089652419433 4
-2.311024404472006 7.498130477705563 -1.242715390279594 4
-2.283686493371872 7.502372244519961 -1.242089652419433 4
-2.250829649441208 7.483420682682525 -1.237709487398307 4
-2.225818642489382 7.495019228836627 -1.238335225258468 4
-2.199642582562243 7.502743123609056 -1.238335225258468 4
-2.172341469183303 7.506580564149749 -1.237709487398307 4
-2.152635364447122 7.536910795317852 -1.241463914559272 4
-2.125241790916134 7.540576367187698 -1.240838176699111 4
-2.099965770137121 7.551755233924069 -1.241463914559272 2
-2.067321486479476 7.536179476123463 -1.237709487398307 4
-2.047193826458087 7.566231610634126 -1.241463914559272 4
-2.022807343984825 7.580965961398540 -1.242715390279594 4
-1.992311700091899 7.572697748902043 -1.240212438838950 4
-1.967849633521599 7.587254521149009 -1.241463914559272 4
-1.945616088939776 7.605220895775143 -1.243341128139755 4
-1.911330610329738 7.581318959646839 -1.238335225258468 4
-1.892474648951209 7.618618414263388 -1.243341128139755 4
-1.861173986506738 7.605990303602796 -1.240212438838950 4
-1.829984601142763 7.593236737795617 -1.237083749538146 4
-1.806204783599960 7.611110300841053 -1.238960963118628 4
-1.778727245605608 7.613521606695837 -1.238335225258468 4
-1.752140259019283 7.619684139293959 -1.238335225258468 4
-1.722044238622923 7.610340480636584 -1.235832273817824 4
-1.693751771240349 7.608592457898446 -1.234580798097502 4
-1.670202801201837 7.621885671790663 -1.235832273817824 4
-1.644419475838909 7.631531443480988 -1.236458011677985 4
-1.618589151176781 7.641090037181964 -1.237083749538146 4
-1.587075627975178 7.623486455267815 -1.233329322377180 4
-1.563621854255231 7.644462393647163 -1.235832273817824 4
-1.535371791701118 7.642127172078298 -1.234580798097502 4
-1.511745100508966 7.662944247984307 -1.237083749538146 4
-1.481231565129877 7.648781076732263 -1.233955060237341 4
-1.455998488243350 7.661667521875414 -1.235206535957663 4
-1.427797336902694 7.658935544450562 -1.233955060237341 4
-1.401680388975059 7.659741958429629 -1.233329322377180 4
-1.377724688834737 7.680142789868265 -1.235832273817824 4
-1.352275601655982 7.692687338881946 -1.237083749538146 4
-1.322062787009941 7.677893519482942 -1.233955060237341 4
-1.293940237759870 7.674670060258281 -1.232703584517019 4
-1.267785976399393 7.683038038472131 -1.233329322377180 4
-1.240410264110030 7.675499467815150 -1.231452108796697 4
-1.095209217535969 6.930535468241867 -1.111310439645800 4
-1.076748670972319 6.963411846679670 -1.116003473597007 14
-1.014079062196937 6.713209660371041 -1.075330512686547 14
-0.990882687223898 6.734642973809014 -1.078146333057271 6
-1.103237856193176 7.684439589828027 -1.229574895216215 4
-1.082386007258733 7.711341991758318 -1.233329322377180 4
-1.054390814977730 7.707244656105580 -1.232077846656858 4
-1.025915600128109 7.699129793930758 -1.230200633076376 4
-0.999542527423010 7.706581938867583 -1.230826370936537 4
-0.970302193929526 7.702354135555544 -1.229574895216215 4
-0.863232197647081 7.050808226989704 -1.125076672569340 4
-0.835350116497091 7.026316639665305 -1.120696507548214 14
-0.784560939531624 6.801555463443763 -1.084403711658880 14
-0.758619221747076 6.784621227630943 -1.081275022358076 10
-0.835729797308014 7.718115137968955 -1.229574895216215 4
nan nan nan 0
nan nan nan 0
-0.754477384749262 7.722511498504600 -1.228949157356054 2
-0.684546804370390 7.268829546552283 -1.156363565577387 2
-0.703959664902651 7.735214489112027 -1.230200633076376 4
nan nan nan 0
nan nan nan 0
-0.274109722663125 3.414317740539191 -0.542514724759521 1
-0.263695223747619 3.427025276598220 -0.544391938340003 8
nan nan nan 0
nan nan nan 0
-0.511841868160196 7.726541762392408 -1.226446205915410 4
-0.486713057778182 7.736082522950131 -1.227697681635732 4
-0.459940430003470 7.741678137068614 -1.228323419495893 4
-0.433355202140701 7.751125650241495 -1.229574895216215 4
-0.406089317816820 7.748645780688967 -1.228949157356054 4
-0.376917164972598 7.734297844972400 -1.226446205915410 4
-0.350274189242808 7.743459846532204 -1.227697681635732 4
-0.325586667392313 7.768262548714258 -1.231452108796697 4
-0.298013404849938 7.757508207381014 -1.229574895216215 4
-0.272425510443309 7.762402124577044 -1.230200633076376 6
-0.244953654702847 7.751459429305274 -1.228323419495893 6
-0.217672517986230 7.744368865163409 -1.227071943775571 6
-0.190735514550792 7.749031059816144 -1.227697681635732 6
-0.163935469448658 7.761499258449407 -1.229574895216215 6
-0.133638361468371 7.580317795051816 -1.200790953648812 2
-0.107674527557882 7.711118841143554 -1.221440303034123 4
-0.081129386598785 7.747002547271362 -1.227071943775571 6
-0.055608578841576 7.770932899630933 -1.230826370936537 2
nan nan nan 0
-0.001353560223259 7.755328732232610 -1.228323419495893 4
0.025652091386437 7.735532550723944 -1.225194730195088 6
nan nan nan 0
nan nan nan 0
nan nan nan 0
nan nan nan 0
nan nan nan 0
nan nan nan 0
nan nan nan 0
nan nan nan 0
nan nan nan 0
nan nan nan 0
nan nan nan 0
nan nan nan 0
nan nan nan 0
