# This PCD file was generated using the MATLAB® pcwrite function
# from Computer Vision Toolbox®.
# .PCD v.7 - Point Cloud Data file format
VERSION .7
FIELDS x y z intensity
SIZE 8 8 8 1
TYPE F F F U
COUNT 1 1 1 1
WIDTH 871
HEIGHT 1
VIEWPOINT 0 0 0 1 0 0 0
POINTS 871
DATA ascii
-0.235879338066516 2.774169143655272 -0.145912646005327 37
-0.226518769018543 2.778956928664127 -0.146121989830299 36
-0.216972332103694 2.781721907469732 -0.146226661742785 32
-0.208002796125084 2.792421040611725 -0.146750021305215 7
-0.197122895619344 2.777192118626000 -0.145912646005327 6
-0.187696391084396 2.781848742987643 -0.146121989830299 5
-0.177984783322102 2.782486977686296 -0.146121989830299 5
-0.169476386576773 2.803027492818676 -0.147168708955158 6
-0.158782336510034 2.787649782595204 -0.146331333655271 10
nan nan nan 0
-0.138420266767320 2.770737408188601 -0.145389286442898 32
-0.128840435969709 2.773198811867122 -0.145493958355384 36
-0.119245106845485 2.775627072096958 -0.145598630267870 28
-0.705850172595976 17.885513042959559 -0.938069679698525 44
-0.643126606706093 17.879884081974833 -0.937650992048582 13
-0.224611764446037 6.842918757684844 -0.358815316001623 21
-0.200665597685157 6.841664709098423 -0.358710644089137 21
-0.176988849395238 6.850309852136207 -0.359129331739081 19
-0.152629572493454 6.830918317191609 -0.358082612614222 17
-0.128181964456003 6.799459009353795 -0.356407862014448 22
-0.103833152491160 6.759924553244364 -0.354314423764730 14
-0.080117462738761 6.750260222765853 -0.353791064202300 14
-0.056420313214176 6.734521248147264 -0.352953688902413 12
-0.032999947048843 6.752652279767895 -0.353895736114786 12
-0.009436956861497 6.758718102979142 -0.354209751852244 21
0.033020687745196 7.007155703070831 -0.613053494487028 2
0.057153154912870 6.967151302117362 -0.609567264777121 2
0.081472703269106 6.966909354106322 -0.609567264777121 2
0.105791258906163 6.966582516503425 -0.609567264777121 2
nan nan nan 0
0.144444260905452 6.515504796628183 -0.570172869055180 2
0.165448935333987 6.447241951946677 -0.564246278548339 31
0.187430426068940 6.428701260309889 -0.562677475178881 44
0.208764377909488 6.394155258617547 -0.559714179925461 53
0.231082873148110 6.393387579564373 -0.559714179925461 51
0.253240721165353 6.388560347279869 -0.559365556954470 51
0.275968738419934 6.397590142474265 -0.560237114381947 68
0.298113189557757 6.392607402570353 -0.559888491410956 68
0.320026701639361 6.383568285937631 -0.559191245468975 65
0.342094154893178 6.378433233362838 -0.558842622497984 72
0.365038848482056 6.389135114887184 -0.559888491410956 65
0.386223976923956 6.387889472809827 -0.559888491410956 46
0.408392333939347 6.384514056556688 -0.559714179925461 40
0.431521060397467 6.378998647760201 -0.559365556954470 48
0.454350932831501 6.385402954132723 -0.560062802896451 46
0.475967193161542 6.389821817712164 -0.560585737352937 44
0.499043605827635 6.398053234040836 -0.561457294780414 40
0.521711255627942 6.414235650375908 -0.563026098149872 36
0.543929486561027 6.410390204963983 -0.562851786664376 31
nan nan nan 0
0.601065700139066 6.541350795076084 -0.574704967678058 2
0.662952405692792 6.935773774965434 -0.609567264777121 2
0.695018715117856 7.012724417380388 -0.616539724196934 2
nan nan nan 0
1.255113130806397 11.842184565893927 -1.041859748805506 4
1.300346716268883 11.873381108361423 -1.044997355544421 9
1.364613991837965 12.070707080841107 -1.062777127064944 6
1.528102520227167 13.106816139869004 -1.154464968435480 10
1.572894004100047 13.093489546121701 -1.153767722493499 10
1.619893949781340 13.079727522680550 -1.153070476551518 8
1.665037285337932 13.070040518939196 -1.152721853580527 8
1.710650096795465 13.064148827023196 -1.152721853580527 8
1.755179767794048 13.050199511353137 -1.152024607638546 8
1.801267702511784 13.047940626829295 -1.152373230609536 8
1.846243835030289 13.037628120367902 -1.152024607638546 8
1.899757046896742 13.086312285054175 -1.156905329232415 3
1.950701354303237 13.115073946151526 -1.160042935971330 3
1.991295264429835 13.104941368440151 -1.159694313000340 3
2.037640278631913 13.101848055965231 -1.160042935971330 3
2.075222494005796 13.043496858785327 -1.155510837348452 5
2.109223083554370 12.965378184404345 -1.149235623870621 5
1.981717992241253 11.906097521642494 -1.055978979130626 11
2.037627202388569 11.983567984621427 -1.063474373006925 13
2.109438884404681 12.149128051551459 -1.078813783730513 9
2.284650810912366 12.891105140582612 -1.145400771189724 3
2.340845938586968 12.957962941573653 -1.152024607638546 3
2.325048926338581 12.618573340151654 -1.122565966589837 16
2.219211302661994 11.801284196419983 -1.050575323080271 8
2.188383447658682 11.417765551241436 -1.017107517865171 13
2.343551024772861 12.000603335520335 -1.069749586484756 3
2.589492011738257 13.018255455156151 -1.161263116369797 8
2.577718706228809 12.738156709822409 -1.137033819885948 14
2.582772646497467 12.537842500003087 -1.119951294307407 9
2.624335429552361 12.529208779949968 -1.119951294307407 14
2.668469802969464 12.521920441285641 -1.120125605792903 14
2.211690158003961 10.195008513730626 -0.912694938053476 7
2.261427332497038 10.251431369778704 -0.918447217074822 5
nan nan nan 0
2.329383972739328 10.228030372365483 -0.917749971132840 49
2.195272209616920 9.486105105620689 -0.851860229615611 43
nan nan nan 0
nan nan nan 0
2.483230723513731 10.240980807202849 -0.921933446784728 45
2.519439553536205 10.234184951339074 -0.922107758270223 47
nan nan nan 0
2.378101642512036 9.384390352647998 -0.846979508021742 7
2.409852468389714 9.372172812377832 -0.846630885050751 7
2.409864710308412 9.238391684776220 -0.835300638493556 10
2.460953965826130 9.301189506746162 -0.841750163456882 1
2.491340822899708 9.284845227255706 -0.841052917514901 1
2.528966343455718 9.295317320107467 -0.842796032369854 1
2.591064301907296 9.393990394622115 -0.852557475557592 5
2.633495992917438 9.419427200282476 -0.855695082296508 1
2.215260124539403 7.823351338924718 -0.711365172306386 2
2.698649519613705 9.405113712494954 -0.856043705267499 1
2.277863978621232 7.830256121755168 -0.713456910132330 4
2.767007836625981 9.389384208359175 -0.856392328238489 1
2.807744211343104 9.406396486216892 -0.858832689035424 1
3.196856876906568 10.575158311472011 -0.966557187071529 1
3.243564804574584 10.602603601384148 -0.970043416781435 7
3.295881978705882 10.640699626773431 -0.974575515404314 4
3.251930169605868 10.370578480738834 -0.950869153376951 1
3.327893253179267 10.484499384091368 -0.962373711419641 1
3.454661195686119 10.753561107578554 -0.988171811272948 8
3.482320875742497 10.711120296291432 -0.985382827505023 8
3.545838618142275 10.778388907502290 -0.992703909895827 1
nan nan nan 0
nan nan nan 0
nan nan nan 0
nan nan nan 0
2.250533377097168 6.459021551214379 -0.598411329705421 4
2.263796146584576 6.424818255089175 -0.595970968908487 6
2.304932132112467 6.469428190526265 -0.600851690502355 2
2.303658771564812 6.402164123086670 -0.595273722966505 6
2.736020999238186 7.521240065030428 -0.700209237234686 2
2.406966947037450 6.538422888249227 -0.609567264777121 2
2.757729341589024 7.411351235094505 -0.691842285930910 10
2.779374997864930 7.390490574480054 -0.690796417017939 23
2.780381417007441 7.315559255973771 -0.684695515025603 14
2.793756881986508 7.274190516124630 -0.681732219772182 2
2.777323898075981 7.156663443808970 -0.671622153613454 4
2.755741170213403 7.028211648560111 -0.660466218541754 2
3.221987417117907 8.133663459434834 -0.765401732809934 2
3.245918178359102 8.111268414540616 -0.764355863896962 4
nan nan nan 0
1.912191803107254 4.683346264119433 -0.442576861672608 1
1.928528082645251 4.676642936547611 -0.442576861672608 3
1.940197456155356 4.661025021959226 -0.441705304245132 12
1.955683567452491 4.652387362035644 -0.441530992759636 1
3.612965393783449 8.511613070584087 -0.808979604183763 2
nan nan nan 0
nan nan nan 0
1.892826219857380 4.332508037643345 -0.413641155080386 4
1.907937963425373 4.325874445998636 -0.413641155080386 4
nan nan nan 0
nan nan nan 0
3.795337419198421 8.370657970640659 -0.804098882589894 4
3.796133758102942 8.291475253752845 -0.797823669112063 12
3.799981924147634 8.223914372903382 -0.792594324547203 14
3.815448643758819 8.185985851466441 -0.790153963750269 22
3.847391835798892 8.179829241858069 -0.790851209692250 18
3.880192787064729 8.175349227723249 -0.791722767119727 16
nan nan nan 0
2.198370437069101 4.551601652859735 -0.442228238701618 1
3.991226975118557 8.190483056485133 -0.797126423170082 4
4.042323937241457 8.218707661941423 -0.801309898821969 4
4.108182100615301 8.279507217486250 -0.808630981212773 2
2.227829867234208 4.452754977246918 -0.435604402252796 1
nan nan nan 0
2.257827370599419 4.433148313690158 -0.435255779281805 4
2.271467375046407 4.421695571778933 -0.434907156310814 3
2.289782875309146 4.421215578172927 -0.435604402252796 1
2.153920093680220 4.123574315126934 -0.407017318631564 3
2.172015365925174 4.123081624709792 -0.407714564573545 6
2.190133398126521 4.122512764254612 -0.408411810515526 3
2.191337819983369 4.090255461548083 -0.405971449718592 6
2.258635066380937 4.180745603199282 -0.415732892906329 1
2.381871641118511 4.372292338118918 -0.435604402252796 1
nan nan nan 0
2.209620253086373 3.989544102136366 -0.398998990298779 1
nan nan nan 0
nan nan nan 0
nan nan nan 0
nan nan nan 0
nan nan nan 0
nan nan nan 0
nan nan nan 0
nan nan nan 0
nan nan nan 0
nan nan nan 0
nan nan nan 0
nan nan nan 0
2.606695123280769 4.242097752174299 -0.435604402252796 1
2.621486926924186 4.232972843841970 -0.435604402252796 1
2.575061388921849 4.125765070048917 -0.425494336094067 1
2.588728760365964 4.117203173904097 -0.425494336094067 3
nan nan nan 0
2.759266298158564 4.322851114743481 -0.448677763664944 45
2.764638567922273 4.298112046745660 -0.447108960295486 42
2.783959633452267 4.295123090315751 -0.447806206237468 26
2.816367512081584 4.312068878350089 -0.450595190005393 29
nan nan nan 0
2.971930558790176 4.481595010543688 -0.470466699351859 3
3.027404979417927 4.530831738119065 -0.476741912829690 1
nan nan nan 0
nan nan nan 0
nan nan nan 0
3.105401867527698 4.511636908018807 -0.479182273626625 1
3.064363011571399 4.418907604613841 -0.470466699351859 1
3.072922741203976 4.398384465976288 -0.469420830438887 5
3.091697563147378 4.392518985259430 -0.469943764895373 9
3.118917968897350 4.395239083514973 -0.471512568264831 9
3.137717268012289 4.389187718722923 -0.472035502721317 13
3.166619819100092 4.400331914642555 -0.474301552032756 3
4.146722571356428 5.720060993062298 -0.618108527566392 23
4.148670312760197 5.676750389015253 -0.615145232312971 57
4.160192182926618 5.651002834165634 -0.613925051914504 63
4.163277386551294 5.614041670237182 -0.611484691117570 57
4.163770697781568 5.573935693219802 -0.608695707349645 65
4.162103030312774 5.535348173997702 -0.605906723581720 68
4.159746826803532 5.492197349757062 -0.602769116842804 65
4.167761321342813 5.461075838445508 -0.601026001987851 68
4.171013148298802 5.425959439195013 -0.598759952676412 63
4.165812839889671 5.382162113990772 -0.595448034452001 65
4.160074860187865 5.336161764729344 -0.591961804742094 65
4.164836006336959 5.302076795414751 -0.589870066916150 65
4.167247667239248 5.267193977668171 -0.587604017604711 61
3.873105062225715 4.862189050089025 -0.543851834745387 36
3.871351491912690 4.825329000185836 -0.541237162462957 36
3.886506204525682 4.808008434895848 -0.540888539491967 29
3.904523508662465 4.795957793975496 -0.541062850977462 25
3.902723765834671 4.761410822504288 -0.538622490180527 19
3.911710083629973 4.738539817063286 -0.537576621267556 19
3.901478216510076 4.692683384326898 -0.533916080072154 19
3.907602295497457 4.666815301502356 -0.532521588188191 19
3.905410663630720 4.629618365359581 -0.529906915905762 17
3.900907532039732 4.591663218496586 -0.527117932137837 14
3.712038194220387 4.341633028452240 -0.499751028915072 16
3.688169966820876 4.283354596522209 -0.494521684350212 20
3.689483426900602 4.253252530430852 -0.492604258009764 15
3.691199618080435 4.225343147913977 -0.490861143154811 15
3.698030180217272 4.203457360711727 -0.489815274241839 13
3.692861875995969 4.168153876510069 -0.487200601959409 13
3.686165972156250 4.131451295837635 -0.484411618191484 11
3.676595856482247 4.091882480472519 -0.481274011452568 11
3.659479689907781 4.042928272898479 -0.477090535800681 9
3.641357325069918 3.994790575689929 -0.472907060148793 9
3.578468107562230 3.901109860110295 -0.463145616961055 12
3.573136776254436 3.868105511115334 -0.460705256164121 3
nan nan nan 0
4.173501820498518 4.455223227621861 -0.534090391557649 63
4.173989086628502 4.424685643048339 -0.532172965217201 63
4.177058650458421 4.397088156275733 -0.530604161847743 63
4.172484046719962 4.360156875477759 -0.527989489565313 63
4.172470602284245 4.329784435438801 -0.526072063224865 65
4.190334005965743 4.318053054281775 -0.526420686195855 17
nan nan nan 0
nan nan nan 0
nan nan nan 0
4.144663287830979 4.153352953294904 -0.513347324783707 2
nan nan nan 0
4.177809425515624 4.128518107110738 -0.513870259240193 60
4.177974718292163 4.099954760883996 -0.512127144385239 54
4.177281016168046 4.072169870518970 -0.510384029530286 46
4.172860423138659 4.039548490509969 -0.508117980218847 36
4.176145419944022 4.013182868727801 -0.506723488334885 28
4.175714672825052 3.984825942692308 -0.504980373479931 20
4.175137018061271 3.956521090800105 -0.503237258624978 12
4.168608973289789 3.922807374181616 -0.500796897828044 6
4.175772630183991 3.903519857665606 -0.500099651886063 4
2.626936931926634 2.438538486264428 -0.313586362406074 2
2.608644236356568 2.405502196679183 -0.310448755667158 2
2.625841593137763 2.404454829395932 -0.311494624580130 2
2.616529495772714 2.379189620736348 -0.309402886754187 2
2.607073224923569 2.354018916158285 -0.307311148928243 2
2.627141783624261 2.355544708993286 -0.308705640812205 2
2.614515371842046 2.327811622244983 -0.306265280015271 2
2.625610366615521 2.321310431031715 -0.306613902986261 3
2.618724559871408 2.298986620681055 -0.304870788131308 3
2.618120713866151 2.281519306533909 -0.303824919218336 3
1.655794353654938 1.432777245839779 -0.191568322559353 1
1.627295560854432 1.398707010746301 -0.187733469878456 1
1.623075187227792 1.385257620896279 -0.186687600965484 3
1.637262749280471 1.387026616221170 -0.187733469878456 16
1.628372163602651 1.369760130003650 -0.186164666508998 21
1.626789747607866 1.359242786622814 -0.185467420567017 20
1.623857541061710 1.347195254463429 -0.184595863139540 24
1.630088055908114 1.342785505043430 -0.184770174625035 26
1.627054163802946 1.330780239800818 -0.183898617197559 28
1.625503040529610 1.320068605338022 -0.183201371255577 29
1.639407036964064 1.321890132213332 -0.184247240168549 29
1.640900594768158 1.313669112327122 -0.183898617197559 29
1.661073089201320 1.320330769031657 -0.185641732052512 29
1.660979750649184 1.310821612085327 -0.185118797596026 26
1.682796663046250 1.318532836821287 -0.187036223936474 30
1.695251898823937 1.318767479594759 -0.187907781363951 45
1.718767135332726 1.327456107450542 -0.189999519189895 47
1.717065982296359 1.316599051261929 -0.189302273247914 33
1.713724738276982 1.304563293502039 -0.188430715820437 29
1.703512801247512 1.288356612767218 -0.186861912450979 26
1.704813060230516 1.280009852506932 -0.186513289479988 27
1.703323906420971 1.268693843202010 -0.185816043538007 26
1.699732049788116 1.256817606488865 -0.184944486110531 24
1.684403388854498 1.237317298052628 -0.182852748284587 15
1.656515560732123 1.207951923325899 -0.179366518574681 15
1.649424579138892 1.193984271222571 -0.178146338176213 30
1.650346339950416 1.185894148176838 -0.177797715205223 29
1.670696179822803 1.191696003629615 -0.179540830060176 30
1.660211221788812 1.175495068795314 -0.177972026690718 29
1.667564496382364 1.171983957360023 -0.178320649661709 27
1.684717819674180 1.175275429834001 -0.179715141545671 27
1.688810032639124 1.169387507012393 -0.179715141545671 28
1.697807608824759 1.166870840914193 -0.180238076002157 31
1.696932676105544 1.157568987432065 -0.179715141545671 29
1.697663370374970 1.149404512302566 -0.179366518574681 29
1.704972613467346 1.145694049572375 -0.179715141545671 29
1.712276597888367 1.141946536853597 -0.180063764516662 27
1.719575153947382 1.138161965788631 -0.180412387487652 27
1.705219813419259 1.120120054622471 -0.178494961147204 25
1.700774063850606 1.108720663731002 -0.177623403719727 22
1.701288160077082 1.100612669603628 -0.177274780748737 24
1.700089798944012 1.091438253113197 -0.176751846292251 27
1.715651821112316 1.092990753130874 -0.177972026690718 30
1.716088437066532 1.084866075890277 -0.177623403719727 30
1.716489277904773 1.076751694193438 -0.177274780748737 29
1.730386278418428 1.077070598134333 -0.178320649661709 29
1.737525708385881 1.073117749231203 -0.178669272632699 29
1.744658585219162 1.069128156057401 -0.179017895603690 29
1.734760592171964 1.054750972646244 -0.177623403719727 29
1.738431791392161 1.048689102226233 -0.177623403719727 29
1.747210606627798 1.045683976295768 -0.178146338176213 32
1.747242646922281 1.037849269038536 -0.177797715205223 34
1.754287820714739 1.033766958403266 -0.178146338176213 34
1.744125295726627 1.019592927417008 -0.176751846292251 33
1.751120801605647 1.015497593286530 -0.177100469263241 34
1.761916590897968 1.012737823519141 -0.177797715205223 33
1.765440971416069 1.006581416932227 -0.177797715205223 32
1.772062355302048 1.002992966633248 -0.178146338176213 31
1.780764652214242 0.999727235020228 -0.178669272632699 26
1.785984227842615 0.994474388969961 -0.178843584118195 17
1.829558968090419 1.010387477517757 -0.182852748284587 14
1.855791578331857 1.016437232970711 -0.185118797596026 19
1.875085319774148 1.018512043725176 -0.186687600965484 22
1.882137344335002 1.013850318338547 -0.187036223936474 26
1.903238639745316 1.016661714350388 -0.188779338791428 13
1.931424851587433 1.023068457709355 -0.191219699588362 18
1.927928711240057 1.012614477001398 -0.190522453646381 22
1.917314766723200 0.998516248933764 -0.189127961762418 24
1.911936997768130 0.987246900624291 -0.188256404334942 24
1.899410055347958 0.972395588887989 -0.186687600965484 24
1.904569428116343 0.966661222538563 -0.186861912450979 25
1.897253377739553 0.954633971017027 -0.185816043538007 27
1.905922821081005 0.950673437812686 -0.186338977994493 27
1.896727707421899 0.937833159295760 -0.185118797596026 24
1.894622597725947 0.928576103234382 -0.184595863139540 24
1.905020860367079 0.925439347171482 -0.185293109081521 24
1.911829931446061 0.920512607489703 -0.185641732052512 24
1.916829624177365 0.914691527149970 -0.185816043538007 25
1.909204000372627 0.902884304620582 -0.184770174625035 27
1.905127630683747 0.892832497017987 -0.184072928683054 25
1.922688898521220 0.892890382640262 -0.185467420567017 5
nan nan nan 0
nan nan nan 0
2.681828922806873 1.211455725166408 -0.257458064076582 36
2.671492720903586 1.195576049088937 -0.256063572192620 36
2.681114011408905 1.188666068512288 -0.256586506649106 36
2.690719545963118 1.181703456991813 -0.257109441105592 36
2.694828068023377 1.172303893658877 -0.257109441105592 35
2.680606101881494 1.155006045859915 -0.255366326250638 35
2.677092022570675 1.142981173170930 -0.254669080308657 35
2.681065461659650 1.133629414681213 -0.254669080308657 36
2.688681806026048 1.125802876598957 -0.255017703279648 35
2.692595211060855 1.116410766871281 -0.255017703279648 35
2.685417123567460 1.102465046973869 -0.253971834366676 34
2.689249084263822 1.093084475296682 -0.253971834366676 34
2.689540413210800 1.081733623563223 -0.253623211395685 36
2.693299982614202 1.072338785222133 -0.253623211395685 35
2.697026735007270 1.062930880771354 -0.253623211395685 35
2.682158971200765 1.046269406115789 -0.251880096540732 36
2.685613778161429 1.037369293702164 -0.251880096540732 35
2.685496409330986 1.026565610798557 -0.251531473569741 35
2.696517522355029 1.020004865030443 -0.252228719511723 36
2.701927547736517 1.011284448968712 -0.252403030997218 37
2.694230736747219 0.997695501761679 -0.251357162084246 33
2.684601313622753 0.983487304080799 -0.250136981685779 35
2.689891152716679 0.974789127477045 -0.250311293171274 34
2.695152955401313 0.966065996115845 -0.250485604656770 35
2.702264488528703 0.957983728612910 -0.250834227627760 34
2.690550500435099 0.943271871116967 -0.249439735743798 35
2.686296827948890 0.931263939986363 -0.248742489801816 34
2.697070160081316 0.924465450858499 -0.249439735743798 35
2.694619749381258 0.913126952992508 -0.248916801287312 34
2.701569159130741 0.904981119528441 -0.249265424258302 34
2.693363233282878 0.891787836844710 -0.248219555345330 33
2.692672582304112 0.881141512693383 -0.247870932374340 34
2.693836202764198 0.871123927278556 -0.247696620888845 35
2.694962719891438 0.861108962177827 -0.247522309403349 34
2.711251896507116 0.855895044648443 -0.248742489801816 34
2.702810719720951 0.842866891841032 -0.247696620888845 34
2.694311764258611 0.829908141620137 -0.246650751975873 36
2.693379983724922 0.819338467617383 -0.246302129004882 36
nan nan nan 0
nan nan nan 0
nan nan nan 0
nan nan nan 0
3.638431850549385 1.037807822454878 -0.331017510955606 1
nan nan nan 0
3.612952792001942 1.003318770045394 -0.328054215702185 22
3.599138703696732 0.985963420764752 -0.326485412332727 18
3.602388486937562 0.974022825560896 -0.326485412332727 18
3.603841385163566 0.960928892294440 -0.326311100847232 16
3.624515878362580 0.952902626666749 -0.327879904216690 23
3.662536028789389 0.949242458627094 -0.331017510955606 15
3.700739301613990 0.944682475124928 -0.334155117694521 12
3.750386948814736 0.943423939919093 -0.338338593346409 12
3.807805849241259 0.943747379512113 -0.343219314940278 12
3.851723269874363 0.940373445879684 -0.346879856135680 12
3.895499492631745 0.937384196978372 -0.350540397331081 12
3.947215616643025 0.935264750961147 -0.354898184468464 13
3.993142910993734 0.931437759830514 -0.358733037149361 12
3.914811338385475 0.898769059826434 -0.351411954758558 8
3.750791081639937 0.847341171123330 -0.336421167005961 16
3.765395617712976 0.836836807135063 -0.337467035918932 11
3.791650976090650 0.828793529586044 -0.339558773744876 10
3.806208341415820 0.818065119129616 -0.340604642657848 13
3.807091377313978 0.804362128894343 -0.340430331172353 13
3.805974368360693 0.790257894062605 -0.340081708201362 13
3.816518429257798 0.778560712821143 -0.340778954143343 13
3.805537930812644 0.762493866414080 -0.339558773744876 13
3.798401766522445 0.747282402831982 -0.338687216317400 13
3.806855867511248 0.735152281916571 -0.339210150773886 15
3.805483728479295 0.721117505857687 -0.338861527802895 15
3.809936550285153 0.708193605223378 -0.339035839288390 15
3.790824347346937 0.690960160366090 -0.337118412947942 13
3.797135814374665 0.678424356034882 -0.337467035918932 15
3.807330990853833 0.666540054728492 -0.338164281860914 15
3.809634454275873 0.653245928626933 -0.338164281860914 16
3.804031928404326 0.638624371088792 -0.337467035918932 16
3.798373839971711 0.624049902153213 -0.336769789976951 16
3.794627597044404 0.609838873721260 -0.336246855520465 17
3.800669691991668 0.597207984068420 -0.336595478491456 18
3.790915341879413 0.582123122900147 -0.335549609578484 20
3.794894585480715 0.569182338020583 -0.335723921063979 20
3.781087324218532 0.553623048127614 -0.334329429180017 20
3.790886255126183 0.541548268995559 -0.335026675121998 20
3.786833505290502 0.527487678235265 -0.334503740665512 21
3.800497416448529 0.515873867413140 -0.335549609578484 21
3.794374167197633 0.501560139834013 -0.334852363636503 21
3.794125715040416 0.488058049700500 -0.334678052151007 21
3.789875293199370 0.474069213633994 -0.334155117694521 22
3.795462681556927 0.461317981862272 -0.334503740665512 22
3.795071197878573 0.447833044578741 -0.334329429180017 25
3.800570233383409 0.435036208295805 -0.334678052151007 25
3.780282971043025 0.419350718077706 -0.332760625810559 26
3.781723747443049 0.406152513146809 -0.332760625810559 27
3.791045356088821 0.393772721050674 -0.333457871752540 26
3.790414348766364 0.380338182571492 -0.333283560267045 21
3.789735767709015 0.366912849765652 -0.333109248781550 23
3.779090796023680 0.352571506448499 -0.332063379868578 30
3.776329659438850 0.339021567601289 -0.331714756897587 32
3.789400169398666 0.326864990587129 -0.332760625810559 33
3.782466158278637 0.314298700644951 -0.332063379868578 28
3.803401324929048 0.302674058367007 -0.333806494723531 15
4.414453166025559 0.334248962620927 -0.387320120770593 10
3.300765078021647 0.238339004800179 -0.289531377407720 3
3.377109692353753 0.232004773907618 -0.296155213856542 1
3.377898965638207 0.220215047728160 -0.296155213856542 1
3.378647080289765 0.208422638297843 -0.296155213856542 1
3.311727166142527 0.192692820888902 -0.290228623349702 1
3.324252459331976 0.182944682301582 -0.291274492262674 2
3.448235249272390 0.177697071298162 -0.302081804363383 2
nan nan nan 0
3.381717607246038 0.150605823750995 -0.296155213856542 1
3.266784666198241 0.133492015381379 -0.286045147697814 1
3.382708728657526 0.126403110601639 -0.296155213856542 1
3.383109297196944 0.115184949212933 -0.296155213856542 1
4.586332673660769 0.140125136586942 -0.401439351095713 6
nan nan nan 0
3.256665808790896 0.076178874659937 -0.284999278784842 1
3.284799812452742 0.065365477949190 -0.287439639581777 1
3.308913423624071 0.054291218966045 -0.289531377407720 1
4.592074533051138 0.059311944821895 -0.401787974066704 3
3.285304197968599 0.030964179417471 -0.287439639581777 1
3.317269936992056 0.019685307141692 -0.290228623349702 3
3.185821133998928 0.007784445035859 -0.278724065307011 1
3.285448863299985 -0.002867095731330 -0.287439639581777 1
3.285418839189425 -0.014335434988325 -0.287439639581777 1
3.257451677084058 -0.026153060134023 -0.284999278784842 1
3.241402482667520 -0.037339927741604 -0.283604786900880 2
3.237268064337402 -0.048594497804737 -0.283256163929889 1
nan nan nan 0
3.256781452488609 -0.071063224091679 -0.284999278784842 1
3.184810503384885 -0.080616083680922 -0.278724065307011 1
3.236290343275239 -0.093224243730704 -0.283256163929889 1
3.251876020552844 -0.105034999396120 -0.284650655813852 2
3.327151909899941 -0.119093822704172 -0.291274492262674 7
3.298843978024851 -0.129611932898203 -0.288834131465739 4
3.234649064197119 -0.138965380884697 -0.283256163929889 1
3.138612631541918 -0.145817248318965 -0.274889212626114 1
3.082367096013418 -0.153988636542758 -0.270008491032245 1
3.109664477062889 -0.166236167033986 -0.272448851829179 1
3.124978581276206 -0.177996319256757 -0.273843343713142 1
3.128315734971936 -0.189143933904539 -0.274191966684133 1
3.091846576750436 -0.197773304041010 -0.271054359945217 1
3.095113121898100 -0.208832908130838 -0.271402982916208 1
3.042730825186272 -0.215436896973949 -0.266870884293329 1
3.037986451331252 -0.225761391179664 -0.266522261322339 3
nan nan nan 0
nan nan nan 0
2.995706230148619 -0.254715976574568 -0.263036031612432 82
3.032506726192318 -0.268510195739489 -0.266347949836843 47
3.043552590913177 -0.279127519317036 -0.267393818749815 33
3.042559711678928 -0.289749799935447 -0.267393818749815 25
3.039494579190888 -0.300703239102314 -0.267219507264320 12
3.040408424677285 -0.311514296374632 -0.267393818749815 2
3.310800762101066 -0.350316262580145 -0.291274492262674 2
nan nan nan 0
3.816936805889433 -0.432185914847343 -0.336072544034970 37
3.805510219070440 -0.444351517526175 -0.335200986607493 36
3.817782839110005 -0.459298369023336 -0.336421167005961 38
3.824065461657473 -0.473601647600471 -0.337118412947942 37
3.822388985880599 -0.486947241772805 -0.337118412947942 37
3.820665935500206 -0.500286902646669 -0.337118412947942 37
3.818896331511116 -0.513620467682507 -0.337118412947942 38
3.817080195475398 -0.526947774415033 -0.337118412947942 37
3.813433100885432 -0.538658201052373 -0.336944101462446 37
3.825332345711473 -0.553965128259038 -0.338164281860914 37
3.831258589445246 -0.568484376018474 -0.338861527802895 37
3.821371750304207 -0.580657269351252 -0.338164281860914 37
3.821082637268931 -0.595632836077968 -0.338338593346409 36
3.820947743632455 -0.609281013730379 -0.338512904831904 37
3.824696952984278 -0.623576713412877 -0.339035839288390 36
3.830358138957289 -0.638233466784299 -0.339733085230372 35
3.826142813529328 -0.651265698199092 -0.339558773744876 37
3.819920241742849 -0.663935102502657 -0.339210150773886 40
3.827624973549462 -0.677669162355293 -0.340081708201362 36
3.833078763924421 -0.692442700853006 -0.340778954143343 37
3.834557146999501 -0.706540488951024 -0.341127577114334 36
3.828151231762699 -0.719185547106377 -0.340778954143343 33
3.829274957525345 -0.734630026476847 -0.341127577114334 35
3.836464212981733 -0.749903283419338 -0.341999134541811 38
3.839685303939171 -0.764457584802904 -0.342522068998297 37
3.844804130014467 -0.779439352147186 -0.343219314940278 37
3.842336479767483 -0.791514294311831 -0.343219314940278 35
3.839550170447154 -0.804921729406752 -0.343219314940278 35
3.840614199895481 -0.819150559787755 -0.343567937911268 33
3.853308221671679 -0.835931020376210 -0.344962429795231 35
3.859946186355700 -0.852196158005733 -0.345833987222708 32
3.858891976702368 -0.866101015683014 -0.346008298708203 35
3.850170958946089 -0.877564499040392 -0.345485364251717 30
3.864553331572852 -0.895044664899995 -0.347054167621175 30
3.863344928650313 -0.908985338478667 -0.347228479106670 28
3.877588870575494 -0.926633156392720 -0.348797282476128 30
3.879974890907358 -0.942249559283838 -0.349320216932614 27
3.955975136971344 -0.975341992455117 -0.356466987837922 17
3.989269382427276 -0.998335080612161 -0.359778906062333 17
3.947138530931965 -1.002445483011358 -0.356292676352427 19
3.924321678961944 -1.011245750780325 -0.354549561497473 17
3.878360345551304 -1.013852170227434 -0.350714708816576 24
3.869378035577900 -1.024501507542982 -0.350191774360090 37
3.886944815539295 -1.043685350924420 -0.352109200700539 44
3.883277993194076 -1.057246961857363 -0.352109200700539 42
3.893007887490573 -1.074506368705359 -0.353329381099006 41
3.877342231623151 -1.086221683595701 -0.352283512186034 41
3.873526988270322 -1.099749516109611 -0.352283512186034 41
3.881152913014284 -1.116569036939915 -0.353329381099006 39
3.877231714413581 -1.130109986327755 -0.353329381099006 41
3.885128434784915 -1.145666280993144 -0.354375250011978 38
3.873469429867627 -1.156940121751347 -0.353678004069997 38
3.869203014998321 -1.171129325977692 -0.353678004069997 38
3.872711135516483 -1.186963623294993 -0.354375250011978 38
3.883977550672720 -1.204520766372100 -0.355769741895941 38
3.874046607769917 -1.216280636461205 -0.355246807439455 35
3.858384526331414 -1.226175575565454 -0.354200938526483 37
3.863564334927651 -1.242686667061365 -0.355072495953959 38
3.870570324526936 -1.259865498017926 -0.356118364866931 38
3.873718545008151 -1.275861769136062 -0.356815610808913 37
3.869016258838735 -1.290051087641334 -0.356815610808913 37
3.860713809585906 -1.302274996709390 -0.356466987837922 37
3.869574385041855 -1.319571888267928 -0.357687168236389 34
3.864944644791224 -1.333071184287874 -0.357687168236389 37
3.871555144191698 -1.350491530347524 -0.358733037149361 35
3.870575302280523 -1.365323108550227 -0.359081660120352 35
3.859915710346108 -1.377491324572903 -0.358558725663866 39
3.856957981619891 -1.391632759055424 -0.358733037149361 33
3.865425090124009 -1.409192163552138 -0.359953217547828 33
3.875438406581086 -1.428188009221703 -0.361347709431791 37
3.875778641467190 -1.444469992571195 -0.361870643888277 33
3.861390361450840 -1.454478647512236 -0.360999086460800 34
3.869324055214883 -1.472910234349462 -0.362219266859267 33
3.873456849859707 -1.489984256827465 -0.363090824286744 31
3.875923284626658 -1.505706788072685 -0.363788070228725 34
3.879916997827119 -1.522866851018119 -0.364659627656202 31
3.872725470191121 -1.535666593642287 -0.364485316170707 30
3.878438505334649 -1.553620839545111 -0.365531185083678 28
3.882226328940793 -1.570886297972962 -0.366402742511155 28
3.889629362810226 -1.589704628701791 -0.367622922909622 24
4.602634650613345 -1.898948940259154 -0.435604402252796 50
4.612530182786491 -1.921900335909639 -0.437173205622253 64
4.612800307865982 -1.941885369273490 -0.437870451564235 63
4.609660952679737 -1.959534114031505 -0.438219074535225 64
4.610116275669013 -1.978756273124719 -0.438916320477207 64
4.630602691240525 -2.006719985027480 -0.441530992759636 66
4.619919053096577 -2.021274365202041 -0.441182369788646 66
4.616480412158744 -2.038998525400967 -0.441530992759636 64
4.627892019376428 -2.062406245750449 -0.443274107614589 63
4.622481696639576 -2.079365399305697 -0.443448419100085 66
4.623899419470937 -2.100413749020625 -0.444319976527561 64
4.616539436867757 -2.116541373633711 -0.444319976527561 64
4.613112058230552 -2.133511418958868 -0.444668599498552 64
4.623690848860139 -2.158027691076963 -0.446411714353505 63
4.616129757339268 -2.174154236638902 -0.446411714353505 66
4.619309403146170 -2.195385694856990 -0.447457583266477 66
4.615210936446603 -2.213219739149024 -0.447806206237468 66
4.614631171474177 -2.232787451738742 -0.448503452179449 64
4.621132716818726 -2.255874166143824 -0.449897944063411 64
4.620379616530776 -2.275512288231142 -0.450595190005393 66
4.637388609211883 -2.304037689982765 -0.453035550802327 66
4.622192996605424 -2.316640231043189 -0.452338304860346 64
4.621190512472583 -2.336356359193227 -0.453035550802327 64
4.620106617380834 -2.356093672414663 -0.453732796744308 63
4.633115117311355 -2.383142526880173 -0.455824534570252 66
4.628305278542157 -2.401135626939398 -0.456173157541243 64
4.626956915031030 -2.420971528305857 -0.456870403483224 64
4.622002168909464 -2.438967550510763 -0.457219026454215 64
4.624013517409370 -2.460702394945299 -0.458264895367187 64
4.632951601023834 -2.486249402835961 -0.460008010222140 63
4.629501560292787 -2.505250995856516 -0.460530944678626 59
4.617230495959967 -2.519487006905385 -0.460182321707635 63
4.618881369223899 -2.541351501310512 -0.461228190620607 64
4.622177977460494 -2.564224687663121 -0.462448371019074 61
4.628848754647816 -2.589096998659540 -0.464017174388532 64
4.630195652866668 -2.611110986137847 -0.465063043301504 69
4.624517023566740 -2.629226935743447 -0.465411666272495 69
4.617039715651607 -2.646344263585307 -0.465585977757990 69
4.631925689558083 -2.676399774478908 -0.468026338554924 69
4.629441579653413 -2.696563157412132 -0.468723584496906 73
4.637181724009631 -2.722794656839188 -0.470466699351859 71
4.629363724846772 -2.739979660871742 -0.470641010837354 78
4.619771207297842 -2.756122463015721 -0.470641010837354 86
4.596462777370824 -2.764017662876745 -0.469246518953392 52
4.564636394039538 -2.766620290387301 -0.466980469641953 50
4.537948846632829 -2.772150513419964 -0.465237354786999 48
4.489222623424081 -2.763948768250644 -0.461228190620607 45
4.455845983441543 -2.764895350470530 -0.458787829823673 43
3.805932937872972 -2.380058509266758 -0.392723776820948 22
3.787488342704828 -2.386955481430657 -0.391677907907976 31
3.760632808761411 -2.388411950371106 -0.389760481567527 30
nan nan nan 0
3.012172094652796 -1.942700920241691 -0.313586362406074 5
3.068854471300872 -1.994460744794431 -0.320210198854896 1
2.978534836213221 -1.950583842935742 -0.311494624580130 1
2.951752372709262 -1.947800755691768 -0.309402886754187 2
2.934980585299003 -1.951473523639508 -0.308357017841215 3
nan nan nan 0
2.916331187269652 -1.968571711486546 -0.307834083384729 18
2.897909493497225 -1.970896365107560 -0.306613902986261 20
2.879851575641044 -1.972613894425812 -0.305393722587794 18
2.854910405563644 -1.970206261745308 -0.303476296247346 19
2.839836456729095 -1.974472909684025 -0.302604738819869 18
2.811712644033303 -1.969513817917411 -0.300338689508430 19
2.809704238997758 -1.982762812991817 -0.300861623964916 18
2.793022884413640 -1.985631808811579 -0.299815755051944 18
2.758193077304769 -1.976128934411826 -0.296852459798524 20
2.746431652095159 -1.982246703309256 -0.296329525342038 20
2.726603843691646 -1.982448184847470 -0.294935033458075 19
2.713237723447603 -1.987244620186076 -0.294237787516094 19
2.693805220599766 -1.986770303198827 -0.292843295632131 19
2.670860509740896 -1.984279421416777 -0.291100180777178 19
2.651156527251118 -1.984040241990243 -0.289705688893216 17
2.644214782619739 -1.993282417821959 -0.289705688893216 17
2.624894299033276 -1.992403215361213 -0.288311197009253 17
2.611592389111033 -1.996713151228488 -0.287613951067272 16
2.588473155109920 -1.994112481852157 -0.285870836212319 16
2.572052133809417 -1.995807244943598 -0.284824967299347 16
2.555650935661320 -1.997411754839857 -0.283779098386375 16
2.539269990353151 -1.998926170983674 -0.282733229473403 16
2.527593346241595 -2.004064176971806 -0.282210295016917 16
2.501899944237568 -1.997955520761485 -0.280118557190973 17
2.482490321300432 -1.996686930910405 -0.278724065307011 17
2.470860983525779 -2.001577910270672 -0.278201130850525 16
2.460771576673769 -2.007671594484403 -0.277852507879534 17
2.444512310509655 -2.008659664649735 -0.276806638966562 17
2.422836026795006 -2.003632113180335 -0.275063524111609 16
2.412765399752287 -2.009527021179235 -0.274714901140619 18
2.397401426203116 -2.012371790883402 -0.273843343713142 16
2.385797668067668 -2.016869217606003 -0.273320409256656 18
2.366606501983161 -2.014852342041979 -0.271925917372694 16
2.350483709947923 -2.015319907264330 -0.270880048459722 16
2.332878598950426 -2.014397428045489 -0.269659868061254 17
2.319819038200343 -2.017298871735658 -0.268962622119273 15
2.302271097022476 -2.016195868638834 -0.267742441720806 16
2.295219233836862 -2.024220011146691 -0.267742441720806 17
2.270967013113054 -2.015550180192133 -0.265650703894862 17
2.255004533120190 -2.015498657134656 -0.264604834981890 16
2.250563482566883 -2.026416461652253 -0.264953457952881 16
2.234620430540570 -2.026230074758990 -0.263907589039909 16
2.224591372409735 -2.031331065386648 -0.263558966068918 16
2.202821230470249 -2.025597957799781 -0.261815851213965 17
2.183689132397071 -2.022826361469428 -0.260421359330003 16
2.175157942732847 -2.029077474680163 -0.260247047844507 17
2.167320056981103 -2.034537279680607 -0.260072736359012 16
2.157309275342883 -2.039352857022141 -0.259724113388021 16
2.132506195183372 -2.030758204850291 -0.257632375562078 16
2.118214397098878 -2.031294574943252 -0.256760818134601 17
2.108244540948241 -2.035908087742008 -0.256412195163610 17
2.095411590982517 -2.037698733650463 -0.255714949221629 17
2.085438913468091 -2.042212667086923 -0.255366326250638 16
2.066948490573307 -2.038288067144867 -0.253971834366676 18
2.051338497621654 -2.037067211501537 -0.252925965453704 15
2.041397644515195 -2.041397644515194 -0.252577342482713 17
2.032165543073464 -2.044974297784304 -0.252228719511723 17
2.020816497773603 -2.047800986447599 -0.251705785055237 16
2.011544627035106 -2.054121742071300 -0.251531473569741 5
2.026586538783929 -2.083984670240962 -0.254320457337667 1
1.208258164920988 -1.251187956660649 -0.152173926837411 1
1.181819043262979 -1.232389503267982 -0.149384943069486 1
1.183005963718607 -1.242278642796267 -0.150082189011467 1
1.184138178221969 -1.252191014531040 -0.150779434953449 1
1.166337873745744 -1.241589360278895 -0.149036320098495 1
1.148406206366201 -1.231084033227901 -0.147293205243542 1
1.162838307298225 -1.255751141859166 -0.149733566040477 1
1.134173024307334 -1.233403898019627 -0.146595959301561 1
1.130076673520217 -1.237158169629873 -0.146595959301561 1
1.120396954532504 -1.235192385709331 -0.145898713359580 1
1.161189959275732 -1.289632100865628 -0.151825303866421 1
1.127465399820511 -1.261001426868931 -0.147990451185524 1
1.112693092704484 -1.252815910724391 -0.146595959301561 1
1.118855982723659 -1.268646568702797 -0.147990451185524 1
1.114420763329668 -1.272544375893283 -0.147990451185524 1
1.117816289911852 -1.285447360765582 -0.149036320098495 1
1.105509642152955 -1.280293426314746 -0.147990451185524 1
1.111408726206906 -1.296244877365103 -0.149384943069486 1
1.096544639995924 -1.287980077040835 -0.147990451185524 1
1.102332219061445 -1.303972322406882 -0.149384943069486 1
1.087752302782907 -1.295414124574990 -0.147990451185524 1
1.083223836676390 -1.299203196583962 -0.147990451185524 1
1.078454743111928 -1.303164683920375 -0.147990451185524 1
1.073899279148378 -1.306921254170464 -0.147990451185524 1
1.079637766296953 -1.322823658833426 -0.149384943069486 1
1.090066372695750 -1.345159514058773 -0.151476680895430 1
1.123077218446950 -1.395329632377203 -0.156706025460289 1
nan nan nan 0
nan nan nan 0
nan nan nan 0
nan nan nan 0
1.624859634451489 -2.093247246967439 -0.231834275708771 13
1.607813357198834 -2.086281312393847 -0.230439783824808 15
1.585992901781033 -2.072892588965641 -0.228348045998864 17
1.580315649566240 -2.079726900308265 -0.228522357484360 17
1.568246888683239 -2.078868301428940 -0.227825111542378 17
1.559422876769111 -2.083007298269166 -0.227650800056883 17
1.561650086944090 -2.101230891688786 -0.229045291940846 17
1.540475635600399 -2.087161445695124 -0.226953554114902 17
1.526115348605309 -2.082883016522532 -0.225907685201930 17
1.518835432438985 -2.088197463587816 -0.225907685201930 17
1.509204390900036 -2.090255777634295 -0.225559062230939 17
1.501898842022043 -2.095511149523749 -0.225559062230939 17
1.485334962112127 -2.087753408745516 -0.224164570346977 17
1.471142313955698 -2.083160660429118 -0.223118701434005 17
1.468436331556899 -2.094809099145769 -0.223815947375986 17
1.456563376442316 -2.093380322702343 -0.223118701434005 17
1.453776139203650 -2.105009586387273 -0.223815947375986 17
1.432901489034337 -2.090351094343385 -0.221724209550042 17
1.421113065785654 -2.088750998949252 -0.221026963608061 17
1.417158290411054 -2.098652430152932 -0.221549898064547 18
1.406496319841396 -2.098621257785885 -0.221026963608061 18
1.396955315286098 -2.100200208805719 -0.220678340637070 17
1.383029881148249 -2.095087092513202 -0.219632471724099 17
1.371706226449640 -2.092996272149337 -0.218935225782117 17
1.364391949146462 -2.097771669180431 -0.218935225782117 18
1.355613896826227 -2.101084154694361 -0.218760914296622 18
1.348271485584376 -2.105803329738133 -0.218760914296622 19
1.330958834343956 -2.093215673552841 -0.217017799441669 19
1.322580871530855 -2.096163815161326 -0.216843487956174 18
1.313465760271583 -2.099537607322554 -0.216669176470678 19
1.307179791882428 -2.105802434566266 -0.216843487956174 17
1.297731461143471 -2.106959664586268 -0.216494864985183 18
1.283096282675216 -2.099576323823722 -0.215274684586716 18
1.275759576547449 -2.104042374341250 -0.215274684586716 18
1.265326174293405 -2.103360967229358 -0.214751750130230 18
1.263820446915011 -2.115878178723297 -0.215623307557706 18
1.253379839446746 -2.115134701989489 -0.215100373101220 18
1.234882134287316 -2.100603519379228 -0.213182946760772 18
1.229549564174898 -2.108343458254657 -0.213531569731763 18
1.221813840456649 -2.112835821353960 -0.213531569731763 18
1.215422595825936 -2.118816110446798 -0.213705881217258 18
1.205063141436420 -2.117850763477394 -0.213182946760772 19
1.190808139945846 -2.109898518771638 -0.211962766362305 20
1.178937297953649 -2.105144020964880 -0.211091208934828 19
1.172549241377279 -2.110988194288897 -0.211265520420323 19
1.167096102217860 -2.118558505801678 -0.211614143391314 19
1.152051708568978 -2.108631916410122 -0.210219651507352 29
1.146213152030934 -2.116344114716348 -0.210568274478342 25
nan nan nan 0
nan nan nan 0
nan nan nan 0
nan nan nan 0
nan nan nan 0
1.399849351214927 -2.719141241198318 -0.267568130235311 1
1.412087608219584 -2.766601462337940 -0.271751605887198 4
1.410104464756307 -2.785489653139411 -0.273146097771161 4
1.400372700517534 -2.790394866128738 -0.273146097771161 4
1.379893028708617 -2.776125760320539 -0.271228671430712 5
1.368432959633747 -2.777351118302200 -0.270880048459722 5
1.347451357381789 -2.756576676527878 -0.268439687662787 5
1.307415879516052 -2.698507379927322 -0.262338785670451 4
nan nan nan 0
1.145563626936915 -2.407127815178562 -0.233228767592733 30
1.142680403480803 -2.423925573586526 -0.234448947991200 37
1.130839240378817 -2.420678986195516 -0.233751702049219 35
1.124066490537664 -2.426027441114815 -0.233926013534715 36
1.118916386356999 -2.437179116612960 -0.234623259476696 36
1.100905035171622 -2.421312887414209 -0.232705833136247 36
1.090809745050736 -2.421507841611620 -0.232357210165257 35
1.079492203557026 -2.420030878122465 -0.231834275708771 33
1.072648726384756 -2.427429053823371 -0.232182898679761 31
1.073812641512451 -2.450860960714313 -0.234100325020210 9
1.070803311665230 -2.467388199586007 -0.235320505418677 9
1.071190491136624 -2.493263395322692 -0.237412243244621 9
1.073402093912750 -2.522653894833417 -0.239852604041555 8
1.078962858772433 -2.559245769138728 -0.242990210780471 8
1.077698767643977 -2.581382374918927 -0.244733325635424 8
1.070203834207281 -2.588811038240396 -0.245081948606415 7
1.069462787806568 -2.612813934108754 -0.246999374946863 8
1.072021782748236 -2.644042005101111 -0.249614047229293 8
1.077629200069083 -2.684747950361778 -0.253100276939199 8
1.081018834010787 -2.722010365057804 -0.256237883678115 8
1.077342009264835 -2.740601348999057 -0.257632375562078 9
1.080772913924071 -2.777767615344886 -0.260769982300993 9
1.079661582506798 -2.803834977909867 -0.262861720126937 17
1.073196939656000 -2.814846532249614 -0.263558966068918 30
1.069694305444773 -2.835352775012602 -0.265127769438376 31
1.061184104782268 -2.842802592659357 -0.265476392409367 30
1.047112892386014 -2.835275487292623 -0.264430523496395 26
1.034968819577592 -2.831247128177365 -0.263733277554414 25
1.029822219726232 -2.847958191560569 -0.264953457952881 26
1.013341229074419 -2.834828403481932 -0.263384654583423 24
0.998126939433845 -2.823320698649931 -0.261990162699460 25
0.991553273590665 -2.836191428963064 -0.262861720126937 25
0.978392279082507 -2.830220080290656 -0.261990162699460 25
0.970935686382593 -2.839104571291863 -0.262513097155946 25
0.957828811107099 -2.833039299639466 -0.261641539728470 25
0.946176359359061 -2.832751367247469 -0.261292916757479 26
0.932534819151586 -2.824685165670351 -0.260247047844507 26
0.923905140057641 -2.831711353321043 -0.260595670815498 27
0.915237756602254 -2.838711666307437 -0.260944293786489 27
0.904609037885026 -2.837934527949676 -0.260595670815498 25
0.891704987903774 -2.831572990313394 -0.259724113388021 25
0.880631876071171 -2.830863446692244 -0.259375490417031 26
0.870744953463920 -2.833920179007877 -0.259375490417031 26
0.858617686957127 -2.831372639183526 -0.258852555960545 26
0.849300655816010 -2.836261179435277 -0.259026867446040 22
0.834876131839884 -2.823923406104761 -0.257632375562078 17
0.825013713254783 -2.826820463348140 -0.257632375562078 10
0.817842504756970 -2.837198520383516 -0.258329621504059 2
0.466115683355832 -1.638482329786081 -0.149036320098495 1
0.442085428417680 -1.574879068143634 -0.143109729591655 2
0.432331199687205 -1.561051736867960 -0.141715237707692 3
0.424779210287024 -1.554863514430221 -0.141017991765711 3
0.420385845713380 -1.560184354799692 -0.141366614736702 2
0.424146682371168 -1.596302641045631 -0.144504221475617 1
0.421601433630723 -1.609337566313666 -0.145550090388589 1
0.406017606394282 -1.572217403156105 -0.142063860678683 2
0.396595515832420 -1.558178463945806 -0.140669368794720 2
0.399878667243608 -1.594338924216349 -0.143806975533636 1
0.408649529610081 -1.653751413375347 -0.149036320098495 1
0.387408398693807 -1.589213119099419 -0.143109729591655 1
0.379998193175852 -1.582806386670151 -0.142412483649673 2
0.369887366173482 -1.564733672235675 -0.140669368794720 2
0.366229483531902 -1.573777444758261 -0.141366614736702 2
0.357175334561074 -1.559509405295551 -0.139972122852739 2
0.354357570292120 -1.572408546903454 -0.141017991765711 2
0.356628857156017 -1.608648818624925 -0.144155598504627 1
0.352709210106363 -1.617670506179139 -0.144852844446608 1
0.354577889874904 -1.653958084828562 -0.147990451185524 1
0.347158982405800 -1.647387432459060 -0.147293205243542 1
0.341406412121944 -1.648589207004312 -0.147293205243542 2
0.340416304610359 -1.673199593096877 -0.149384943069486 1
nan nan nan 0
nan nan nan 0
