# This PCD file was generated using the MATLAB® pcwrite function
# from Computer Vision Toolbox®.
# .PCD v.7 - Point Cloud Data file format
VERSION .7
FIELDS x y z intensity
SIZE 8 8 8 1
TYPE F F F U
COUNT 1 1 1 1
WIDTH 894
HEIGHT 1
VIEWPOINT 0 0 0 1 0 0 0
POINTS 894
DATA ascii
-3.225036040610749 -1.112358134241863 0.059547610764011 5
-3.202401832394237 -1.092057940351346 0.059058943383767 6
-3.207900421509765 -1.082071533117281 0.059093848196642 5
-5.488084246843020 -1.829899017749826 0.100979623646122 14
-5.496653627067773 -1.810397461631812 0.101014528458997 20
-5.506742605071081 -1.792437401442215 0.101084338084746 19
-5.506945639170048 -1.772328649780928 0.100979623646122 10
-3.212956916153865 -1.021679298792627 0.058849514506520 4
-3.212688123920895 -1.009259116734534 0.058779704880771 6
-3.220011227786131 -0.999223912630998 0.058849514506520 5
-3.219483454420223 -0.987367830653076 0.058779704880771 4
-5.492727339545008 -1.663583775937354 0.100176812950007 16
-5.496585013071575 -1.643827482527171 0.100141908137133 18
-5.506125239320185 -1.625763347029404 0.100211717762882 20
-5.504087438175961 -1.604295187305977 0.100072098511384 7
-3.205477074648452 -0.922183827947527 0.058221227874778 5
-3.200981900040348 -0.908804380685866 0.058081608623280 6
-3.192581347483907 -0.894388702136432 0.057872179746032 6
-3.214803093244408 -0.889127302634971 0.058221227874778 4
-5.498188460411925 -1.500009212877828 0.099478716692516 17
-5.507511548807206 -1.480885758815688 0.099548526318265 20
-5.502982722290525 -1.459089430380467 0.099374002253892 21
-5.495932385503901 -1.438755573875020 0.099164573376645 6
-3.210322836372711 -0.828452833343770 0.057872179746032 6
-3.209461543396707 -0.815695707642323 0.057802370120283 6
-3.212289299634950 -0.804487626666367 0.057802370120283 6
-3.207312026457896 -0.791353632771591 0.057662750868785 4
-5.506837395368860 -1.338349986792494 0.098920239686523 19
-5.511475559106418 -1.319119383358823 0.098920239686523 29
-5.504368275297525 -1.297120682792285 0.098710810809276 24
-5.518378879092048 -1.281121476417334 0.098885334873648 7
-3.197112679380195 -0.730474949637228 0.057243893114290 4
-3.203419293335142 -0.720746814468444 0.057313702740039 6
-3.217630326415009 -0.712153194097579 0.057523131617286 6
-3.200678723009555 -0.696105477820116 0.057174083488541 4
-5.518386689701508 -1.180017720495213 0.098501381932028 19
-5.510730487073675 -1.158279841317028 0.098291953054781 29
-5.497114830402349 -1.135396358180405 0.097977809738910 21
-5.508883650569673 -1.117791525560324 0.098117428990408 13
nan nan nan 0
-3.214445077768390 -0.629483888743640 0.057174083488541 6
-3.208767802355904 -0.616749755130276 0.057034464237043 6
-3.210901111849966 -0.605545307809292 0.057034464237043 6
-5.493946671536850 -1.016259332322442 0.097524047171540 14
-5.511233773055231 -0.999573730366648 0.097768380861662 22
-5.508782873905940 -0.979279866239182 0.097663666423039 21
-5.510197598697178 -0.959701541219105 0.097628761610164 20
nan nan nan 0
-3.214895201688894 -0.537412149817811 0.056894844985544 6
-3.224645402723393 -0.527478053177647 0.057034464237043 7
-3.218568671065765 -0.514955033229145 0.056894844985544 6
-5.502248623203831 -0.860645294557477 0.097209903855669 9
-5.509172793199031 -0.842037880395271 0.097279713481418 20
-5.502189580051217 -0.821326005532571 0.097105189417045 20
-5.516755443283182 -0.804807582016736 0.097314618294293 19
-5.525470373280193 -0.786390887289980 0.097419332732917 7
-3.204800442056715 -0.444702810266997 0.056475987231049 6
-3.210296548882415 -0.434049122901414 0.056545796856799 7
-3.211792104842377 -0.422840452333978 0.056545796856799 7
-3.221182473107218 -0.412642991637439 0.056685416108297 4
-5.637448668559370 -0.703180557712756 0.099164573376645 15
-5.659720584710213 -0.685903741163707 0.099513621505391 10
-5.715584849075277 -0.673449637870293 0.100456051453004 14
-5.717900805707962 -0.653494420642379 0.100456051453004 8
-3.207893469673174 -0.355288194105966 0.056336367979551 3
-3.225020502983083 -0.345793910358985 0.056615606482548 6
-3.218309972255307 -0.333147692995654 0.056475987231049 6
-3.209504400964665 -0.320916882438022 0.056301463166677 6
-5.712415174121781 -0.553061917519547 0.100176812950007 10
-5.714310918498793 -0.533118497965190 0.100176812950007 13
-5.722112091935573 -0.513704995682648 0.100281527388631 15
-5.715901206388433 -0.493040563282498 0.100141908137133 13
-5.723648639401362 -0.472581069596637 0.100246622575756 5
-3.223450868087786 -0.254823282373425 0.056441082418175 6
-3.214350658691948 -0.242816633239285 0.056266558353802 7
-3.223156774820974 -0.232169653601874 0.056406177605300 6
-5.717581768471939 -0.393795988697477 0.100037193698509 5
-5.706948919421776 -0.373052876254053 0.099827764821262 12
-5.728236907708751 -0.353364592610050 0.100176812950007 16
-5.711468611095233 -0.332321759274718 0.099862669634136 14
-5.708600409732409 -0.312164615378385 0.099792860008387 11
nan nan nan 0
-3.211807162633109 -0.154274161043467 0.056126939102304 7
-3.216321543011555 -0.143239859648660 0.056196748728053 7
-3.216801948498858 -0.132011929636490 0.056196748728053 6
-5.729090766930983 -0.215082680301530 0.100072098511384 12
-5.725809567270316 -0.194947022478824 0.100002288885635 16
-5.716461362208618 -0.174653690905089 0.099827764821262 17
-5.733027900347504 -0.155131175856177 0.100107003324258 16
-5.723538779961690 -0.134882667024430 0.099932479259885 7
-3.226835462724146 -0.065902277265033 0.056336367979551 6
-3.203052939700297 -0.054231886630627 0.055917510225056 10
-3.207214187829316 -0.043664326426332 0.055987319850806 12
-3.209346658259274 -0.032489036054707 0.056022224663680 13
-3.211440165131264 -0.021299390050624 0.056057129476555 18
-3.211494948684817 -0.010089242130127 0.056057129476555 21
-3.197512880409233 0.000558071282047 0.055812795786433 27
-3.193492088116744 0.011704812243290 0.055742986160684 36
-3.217427505156381 0.023023821386494 0.056161843915178 15
-3.211328789170763 0.034190730876786 0.056057129476555 12
-3.225186345685849 0.045598035559130 0.056301463166677 12
-3.207013067550487 0.056538522940932 0.055987319850806 9
-5.713876003187520 0.119688640116838 0.099757955195513 12
-5.727417090204186 0.139975058687812 0.100002288885635 17
-5.732945887986424 0.158132960843057 0.100107003324258 18
-5.732358973874645 0.178143713120244 0.100107003324258 16
-5.709684158201275 0.198388827326010 0.099723050382638 11
-3.213161582607579 0.122875590585644 0.056126939102304 4
-3.220704914683103 0.134424428386818 0.056266558353802 6
-3.224211369516020 0.145846694602597 0.056336367979551 7
-5.542624064854182 0.269140205705413 0.096860855726923 9
-5.523677901064722 0.287550304489227 0.096546712411052 17
-3.202603449766472 0.177371259114368 0.055987319850806 6
-3.199968559768925 0.188431801301730 0.055952415037931 25
-3.067534080823971 0.191917899769619 0.053648697388210 6
-2.957101491394036 0.195373711432588 0.051728932680108 21
-2.944467967689476 0.204348055969495 0.051519503802861 66
-2.965675138450784 0.216224430518150 0.051903456744481 91
-2.937027088367551 0.223929456815881 0.051414789364237 65
-2.930247438504830 0.233703284844285 0.051310074925614 69
-2.929371191240749 0.244441608855533 0.051310074925614 71
-2.924515730205236 0.254319049609212 0.051240265299864 71
-2.919673114898186 0.263656000513602 0.051170455674115 71
-2.926698802323932 0.274593147559789 0.051310074925614 69
-2.933683612473093 0.285582546518347 0.051449694177112 74
-2.932668870348424 0.295821273505441 0.051449694177112 69
-2.923662849410599 0.305225849474492 0.051310074925614 69
-2.918603301636512 0.315000322044995 0.051240265299864 71
-2.925492383016792 0.325561705939477 0.051379884551363 69
-2.928311422999371 0.336227808041626 0.051449694177112 71
-2.935002591030154 0.347899889891108 0.051589313428610 69
-2.921860555049765 0.356688946153038 0.051379884551363 69
-2.920661666498637 0.366376223722134 0.051379884551363 69
-2.923331509651436 0.377080646080034 0.051449694177112 71
-2.929926879375272 0.388333650684881 0.051589313428610 69
-2.928553491850732 0.398558638231382 0.051589313428610 69
-2.923183467617934 0.408225618222450 0.051519503802861 69
-2.919761186142680 0.418143458589914 0.051484598989986 65
-2.924219297387418 0.429203964947906 0.051589313428610 69
-2.926658224161261 0.440003379480784 0.051659123054359 69
-2.933010183364321 0.451433444238158 0.051798742305857 66
-2.919564429325189 0.459802224612983 0.051589313428610 69
-2.921890133233560 0.470626586921760 0.051659123054359 66
-2.920229538717289 0.480823019632242 0.051659123054359 71
-2.926421290131402 0.492340657432630 0.051798742305857 69
-2.932568119391587 0.503907364231593 0.051938361557356 66
-2.923002265792812 0.512248615874774 0.051798742305857 66
-2.919227915336626 0.522096622712094 0.051763837492983 65
-2.925349661208948 0.533208580991216 0.051903456744481 63
-2.927402632148108 0.544147598428167 0.051973266370230 63
-2.931282568504822 0.555991355593454 0.052077980808854 66
-2.917543815040514 0.563943029604378 0.051868551931607 69
-2.919481546167033 0.574896432576242 0.051938361557356 66
-2.931181592726746 0.587836232956599 0.052182695247478 65
-2.931175482800271 0.597952850377467 0.052217600060352 66
-2.931028314858811 0.608587457339037 0.052252504873227 65
-2.918995885377297 0.617257567847721 0.052077980808854 66
-2.914868495336033 0.627022466214993 0.052043075995979 65
-2.920698843961893 0.637883397805880 0.052182695247478 65
-2.926262995182701 0.649808632160145 0.052322314498976 65
-2.931779385379849 0.661780462818992 0.052461933750474 63
-2.917757061985338 0.669327575234402 0.052252504873227 65
-2.919179091121064 0.680925700327920 0.052322314498976 63
-2.932350993569648 0.694799774850914 0.052601553001973 81
-2.947405615459634 0.709241895998970 0.052915696317844 73
-2.941026834524259 0.718576697971726 0.052845886692094 42
-2.930737074096476 0.726912822757245 0.052706267440596 29
-3.139553884905493 0.790349241067027 0.056510892043924 4
-3.191167515366753 0.814604807650233 0.057488226804412 6
-5.633252158633520 1.458956148008430 0.101573005464990 3
nan nan nan 0
nan nan nan 0
-5.648819205648330 1.525226128214063 0.102131482470983 2
-5.631888384971884 1.541766880630798 0.101922053593736 8
nan nan nan 0
-3.207200352536906 0.901503361747905 0.058151418249029 4
-3.215573117169583 0.915980097850928 0.058360847126276 4
-5.621623279252527 1.622598183918111 0.102131482470983 7
-5.630992162114686 1.647684227767133 0.102410720973980 3
nan nan nan 0
nan nan nan 0
-5.636687011760803 1.712556454306133 0.102829578728474 2
-5.672723221011000 1.745157534145474 0.103597484611715 1
-3.207507692956712 0.999027397012166 0.058640085629273 5
-3.231056277023415 1.017508292484700 0.059128753009517 4
nan nan nan 0
-5.629409347475068 1.816079887814455 0.103248436482969 8
-5.661054922779968 1.848131023385501 0.103946532740461 1
nan nan nan 0
nan nan nan 0
-3.277428706508918 1.107436086698544 0.060385326273001 1
-3.214884201760853 1.098820590722975 0.059303277073889 5
-3.242766655367092 1.122274836701247 0.059896658892757 1
nan nan nan 0
-5.659456663269827 2.001895736018628 0.104784248249450 2
-5.648668484749217 2.020291868949809 0.104714438623701 6
nan nan nan 0
nan nan nan 0
-3.215422970024359 1.186869778849605 0.059826849267008 4
-3.233743002012328 1.206474472055574 0.060245707021503 4
nan nan nan 0
nan nan nan 0
nan nan nan 0
-5.627705781070079 2.190756910111283 0.105412534881192 7
-5.635298529703000 2.215259743273035 0.105691773384189 1
-3.226352272288552 1.281313111907773 0.060594755150248 1
-3.210499673235473 1.288660335591123 0.060385326273001 4
-5.626220171003947 2.281140226296474 0.105971011887185 6
-5.633832397790086 2.304861687369296 0.106250250390182 2
-15.106735151173108 6.241975181699705 0.285311940436711 1
nan nan nan 0
-5.614915782837998 2.366061151596261 0.106354964828806 4
-3.275283234215029 1.393649715073535 0.062130566916729 1
-3.215279458290646 1.381393072440344 0.061083422530492 5
-3.250797698868330 1.410115149271798 0.061851328413733 1
-5.638117247682879 2.469094406740578 0.107437014027917 4
-5.636779893343562 2.491994322218655 0.107576633279416 3
nan nan nan 0
nan nan nan 0
-5.786048368280094 2.628321778379946 0.110927495315374 1
-3.224704723089346 1.478427956157878 0.061921138039482 3
-3.241302468544906 1.499751990273428 0.062339995793977 1
nan nan nan 0
-5.640251318981013 2.657708861385408 0.108833206542900 4
-5.656692369429159 2.688415177297559 0.109321873923144 2
nan nan nan 0
-3.204105705223056 1.550305267491428 0.062130566916729 1
-3.218441699721676 1.571129835595878 0.062514519858350 5
-3.239846852301807 1.595607273918172 0.063038092051468 1
nan nan nan 0
nan nan nan 0
-5.628580818498354 2.845667269730348 0.110089779806384 7
nan nan nan 0
-3.218908093633211 1.655004308615880 0.063177711302966 1
-3.223762637954513 1.671753727254208 0.063387140180214 3
-5.649057859197739 2.954511606732219 0.111276543444120 5
nan nan nan 0
nan nan nan 0
-5.656576927001602 3.034301156821459 0.112044449327360 2
-5.652986230254285 3.057833451205698 0.112184068578858 1
-3.212622484811623 1.752306095204629 0.063875807560458 3
-3.216999292247434 1.769291563352472 0.064085236437705 1
-5.628195103198353 3.119759489044993 0.112323687830357 5
-5.648691230004504 3.156946822411701 0.112951974462099 1
nan nan nan 0
nan nan nan 0
-3.238007432634471 1.854424341722285 0.065132380823942 1
-3.224587408600888 1.861716408381201 0.064992761572444 3
nan nan nan 0
-5.634234498720783 3.302942599308436 0.113999118848336 3
-5.650215985099078 3.338866855530919 0.114557595854329 2
nan nan nan 0
-3.274223666731099 1.966574364806651 0.066668192590423 1
-3.227994172429789 1.954172810737893 0.065865381894308 4
-6.148698314473069 3.751708640723020 0.125727135974190 2
-6.132158192870953 3.771053716660719 0.125657326348441 2
-5.691245866615638 3.525972194889874 0.116861313504050 3
-5.695865330390236 3.556407719762239 0.117210361632796 3
-3.350782766284151 2.109283871285338 0.069111529491643 1
-3.235330096147519 2.052410912246600 0.066877621467670 3
-5.658942088802433 3.614870975111874 0.117210361632796 5
-5.730361564152395 3.688720904157964 0.118955602276524 1
-5.727516548163845 3.715230529302245 0.119165031153772 1
-5.657602287229627 3.698001823678297 0.117978267516037 4
-5.658019524434649 3.726527367856897 0.118257506019033 1
-3.232365840872851 2.145140019648248 0.067715336976660 3
-5.545426286457531 3.708135981320649 0.116442455749556 7
-5.555666402048774 3.743113402181402 0.116931123129800 15
-5.549842017784120 3.766007437448336 0.117070742381298 20
-3.232195871751872 2.209817864834618 0.068343623608402 5
-3.227756104929762 2.223355601167247 0.068413433234151 6
-3.236403927290664 2.246010093604742 0.068762481362897 2
-5.555718143176716 3.884378271995324 0.118327315644782 2
-5.560108582714183 3.916414710310782 0.118711268586402 4
-5.544086245447864 3.935609688944942 0.118676363773528 12
-5.551459948081090 3.970060006832330 0.119130126340897 7
-3.232412056218994 2.327860353212687 0.069530387246138 4
-5.538875679652797 4.018323689276031 0.119444269656768 9
-5.544189354916274 4.051792347532172 0.119863127411263 15
-5.552557369661090 4.087717957750116 0.120351794791507 20
-5.550216490284131 4.114444492853603 0.120596128481629 16
nan nan nan 0
-3.224920082479982 2.425742146667023 0.070437912380876 3
nan nan nan 0
nan nan nan 0
nan nan nan 0
nan nan nan 0
-3.218361544188140 2.509939786183406 0.071240723076991 4
nan nan nan 0
nan nan nan 0
nan nan nan 0
nan nan nan 0
-3.218065059411215 2.600362633464585 0.072218057837479 4
-3.303578005300956 2.688576732975576 0.074347251422828 1
nan nan nan 0
nan nan nan 0
nan nan nan 0
-3.230453975363949 2.704912998285428 0.073544440726713 4
nan nan nan 0
nan nan nan 0
nan nan nan 0
nan nan nan 0
-3.225538683241153 2.797006740766487 0.074521775487201 4
nan nan nan 0
nan nan nan 0
-5.655625608397948 5.008956496088801 0.131870383040114 1
-3.244878687194050 2.893113904794421 0.075883063189309 1
-3.231784205910050 2.901751057036848 0.075813253563560 3
nan nan nan 0
nan nan nan 0
nan nan nan 0
-3.235549700105727 2.986725065581488 0.076860397949797 4
-3.233892122284955 3.006169985748671 0.077069826827044 1
nan nan nan 0
nan nan nan 0
-3.225973795984617 3.061334825540096 0.077628303833037 1
-3.221050945783140 3.078103142327863 0.077767923084535 3
-5.681400630066456 5.467333989491048 0.137629677164418 5
-5.676165549306622 5.498666398251122 0.137943820480289 5
-5.708467843519427 5.568715662510185 0.139200393743773 1
-3.228786848341557 3.170705305197207 0.078989591535145 4
nan nan nan 0
-5.677314370617167 5.651609812905369 0.139828680375515 2
nan nan nan 0
-3.235426808699107 3.266064591918878 0.080246164798630 4
-3.337596886658843 3.392807955558218 0.083073454641470 1
nan nan nan 0
nan nan nan 0
-3.239454530416808 3.362765476367686 0.081502738062114 4
-3.289900554564185 3.439077367872407 0.083073454641470 1
nan nan nan 0
nan nan nan 0
-3.243374186683464 3.461098814383865 0.082794216138473 4
-3.242170991215334 3.484110512721390 0.083073454641470 1
nan nan nan 0
nan nan nan 0
-3.245913935457703 3.562213700554855 0.084120599027707 4
nan nan nan 0
-3.363288272880577 3.741871664243601 0.087820509192411 1
-3.288954430049292 3.684962109734745 0.086214887800181 7
-3.260112297458077 3.675827639778750 0.085761125232811 8
-3.253869586348260 3.694688590289807 0.085935649297184 11
-3.223196361992281 3.687018044311804 0.085481886729815 22
-3.212928358989807 3.701266846263554 0.085551696355564 32
-3.186272506783455 3.695242071637210 0.085167743413944 35
-3.166851517763537 3.698746763040608 0.084993219349571 34
-3.139673495342958 3.693019850295803 0.084609266407950 35
-3.111284296062147 3.685620436801358 0.084190408653456 36
-3.097115547693609 3.694925863316861 0.084155503840581 35
-3.079082101540534 3.699566291217045 0.084015884589083 34
-3.059780211995554 3.702584459610045 0.083841360524710 36
nan nan nan 0
-3.009240329074929 3.692323907713950 0.083143264267219 2
-2.998849193160638 3.705914610593865 0.083213073892968 3
-2.980884976348396 3.710124466768515 0.083073454641470 3
-2.951704758321479 3.700184996210854 0.082619692074100 15
nan nan nan 0
-2.941869910073408 3.741136222237652 0.083073454641470 42
-2.948482349349820 3.776601850285714 0.083631931647463 43
-2.935281585592910 3.786870966020375 0.083631931647463 26
-2.925703710433442 3.801848231171025 0.083736646086086 22
-2.928197116064008 3.832694825389205 0.084190408653456 16
-2.953471330588407 3.893876442989353 0.085307362665442 43
-2.938658282527467 3.902564811308649 0.085272457852567 40
-2.935281435471876 3.925099718710959 0.085551696355564 47
-2.950170107982891 3.973856213236951 0.086389411864553 50
-2.945771796329165 3.997008014627331 0.086668650367550 53
-2.947151435053965 4.028246777944936 0.087122412934919 47
-2.949523801864289 4.061161612253574 0.087611080315163 49
-2.951702089902195 4.094141815682869 0.088099747695407 45
-2.949030733398018 4.120681805719924 0.088448795824153 49
-2.946209916941236 4.147252833892146 0.088797843952899 48
-2.947849007324022 4.180391147836855 0.089286511333142 48
-2.946999066668783 4.210314649501885 0.089705369087637 52
-2.961949505474164 4.263274378974688 0.090612894222376 45
nan nan nan 0
-3.250325022054416 4.746979970919874 0.100421146640129 7
-3.249471105163833 4.781451531296717 0.100909814020373 8
-3.252888806203910 4.822605978989914 0.101538100652115 8
-3.252721278776014 4.858857036128329 0.102061672845234 9
-3.256766561966481 4.901827736988895 0.102724864289851 9
-3.252845674283624 4.933199407270819 0.103143722044346 9
nan nan nan 0
-3.271692951782671 5.037965348809250 0.104854057875199 1
-3.243254724524966 5.032546223810010 0.104505009746454 10
-3.251525159834113 5.084268191706797 0.105342725255443 1
-5.338165032933204 8.411602126803968 0.173895777741093 5
-5.304508179205363 8.423416039477708 0.173756158489595 5
-5.288621794154689 8.456993726816902 0.174105206618340 3
-5.273829976546338 8.499191159024688 0.174593873998584 2
-5.250420572905374 8.527765452503704 0.174803302875832 3
-5.232088148254021 8.564812142382282 0.175187255817452 4
-5.205268978633215 8.588153677318687 0.175291970256076 4
-5.179381085669402 8.613125990417933 0.175431589507574 4
-5.160068366236191 8.652661271306435 0.175850447262069 4
-5.129833505021744 8.670620556278198 0.175850447262069 4
-5.097002424022302 8.680686378071183 0.175710828010570 2
nan nan nan 0
-6.222690359365466 10.764994897496488 0.217038126454058 1
-6.181096783987880 10.779711572419181 0.216898507202559 1
-6.139476337044933 10.794269122611293 0.216758887951061 1
-3.269993068502957 5.796204571864381 0.116163217246559 1
-3.216540141842050 5.748251380292468 0.114976453608824 3
-3.223626245082273 5.808401204374538 0.115953788369312 3
-3.237143014980558 5.878616094935786 0.117140552007047 1
-3.223312337246008 5.902165226861032 0.117384885697169 4
-3.222602707448601 5.952627294547066 0.118152791580409 4
-3.219776251442763 5.997315036983048 0.118815983025026 4
-3.222431515410038 6.050318514005631 0.119653698534016 2
-5.664830593941254 10.726149712278181 0.211732594897124 3
-5.636631711232398 10.763573213790151 0.212081643025869 4
-5.629434942645843 10.841748830341277 0.213233501850730 4
-5.624506610650779 10.925338410979462 0.214490075114214 4
-5.636335547066416 11.042865949657436 0.216409839822316 2
-3.262268154446497 6.444213472898480 0.126076184102936 1
nan nan nan 0
-3.224084666090334 6.483507349499664 0.126390327418807 4
nan nan nan 0
nan nan nan 0
nan nan nan 0
nan nan nan 0
-6.852183069577719 14.398222912837367 0.278330977861797 1
-6.801882146546177 14.422053776465365 0.278330977861797 1
-6.751498344727222 14.445708911919418 0.278330977861797 1
-3.350516139015796 7.234594015484580 0.139165488930899 10
-3.324408259547301 7.244427955637124 0.139130584118024 11
-3.285462778995158 7.222648229107413 0.138502297486282 16
nan nan nan 0
-3.226806907480423 7.227149290109385 0.138153249357536 22
-3.196706490443350 7.227396150505981 0.137943820480289 16
-3.170656199803412 7.236679099810053 0.137908915667414 40
nan nan nan 0
-3.097946525083369 7.207197310319333 0.136931580906926 30
nan nan nan 0
-3.045225180394931 7.223121348094682 0.136826866468303 51
-3.015370790469023 7.222635161195136 0.136617437591055 55
-3.000311423562225 7.250550016614710 0.136966485719801 66
-2.993937773635707 7.307238944255410 0.137839106041665 43
-2.997941206496357 7.394143110113882 0.139270203369522 43
-2.996693948024904 7.465803575390931 0.140422062194383 41
-2.995721043543146 7.539403051284580 0.141608825832118 43
-2.997198192817372 7.620529674443900 0.142935208721352 42
-3.034415945362757 7.794931550402691 0.146006832254314 37
-3.058230468321917 7.937962117913899 0.148485073968408 62
-3.032640345096686 7.954194466573784 0.148589788407032 71
-3.003444824095499 7.960989951288518 0.148519978781283 66
-2.972131136554845 7.957792837225284 0.148275645091161 60
nan nan nan 0
-3.127396241583634 8.550635804958853 0.158921613017904 27
-2.939013653764314 8.123365157575355 0.150788791618130 13
-2.913334949159453 8.141105827146484 0.150928410869628 12
-2.882230705414315 8.143685216232836 0.150788791618130 16
-2.853786379553346 8.153696464806510 0.150788791618130 17
-2.819421224370096 8.146600845738654 0.150474648302258 21
-2.748344560878548 8.027257578565667 0.148101121026788 27
-2.707484892609017 7.998919546075133 0.147403024769297 23
-2.731576995867278 8.163823092122946 0.150265219425011 20
-2.740108760275963 8.285323481739422 0.152324603384610 18
-2.831073727731387 8.661680961137858 0.159061232269402 16
-2.793446135614650 8.648675695413017 0.158642374514907 15
-2.895169856693324 9.071766063079977 0.166216718908688 5
-3.372202566219363 10.695260131537191 0.195746190600572 1
-3.334848596692996 10.706966156012642 0.195746190600572 5
-3.285106180347296 10.678404526882902 0.195013189530206 20
-2.850556070619469 9.370523863499784 0.170963773459629 13
-2.846019272428723 9.474259546420765 0.172674109290483 19
-2.818048116804700 9.501390628525579 0.172988252606354 21
-2.780369562780888 9.495816588941103 0.172709014103358 16
nan nan nan 0
nan nan nan 0
-3.039444226570401 10.798695980886915 0.195816000226321 21
-3.039185982656296 10.944114482134552 0.198259337127541 16
-3.039181563325646 11.101763542430877 0.200912102906008 17
nan nan nan 0
nan nan nan 0
-2.772268557505663 10.552251105828013 0.190440659043638 7
-2.742436470655026 10.588965397843763 0.190929326423882 23
nan nan nan 0
-3.059857345897561 12.154863341931826 0.218783367097786 23
-3.016928914052766 12.163529300240141 0.218748462284912 32
-2.977051569604732 12.175409389018316 0.218783367097786 19
nan nan nan 0
nan nan nan 0
-3.322166988692452 14.231148740075584 0.255084372487336 1
-3.019915554050175 13.143471451663117 0.235398058026080 1
-2.981955648605737 13.189041211338141 0.236026344657822 1
-2.928083965415475 13.164233971095863 0.235398058026080 2
-3.105196181158103 14.194099421898660 0.253618370346604 17
-3.078311989422165 14.298153879811357 0.255293801364583 16
-3.083038355203130 14.567051515235569 0.259901236664026 12
-3.378716545137865 16.243806183187687 0.289605232420283 15
-3.632292884884154 17.773882892695156 0.316656462398072 2
-3.563144539877904 17.751163093726003 0.316028175766330 2
-3.487238597242392 17.692862453660823 0.314771602502845 2
-3.426977123315125 17.712780547353034 0.314911221754344 4
-3.366992058787546 17.734458025235604 0.315085745818717 29
-3.306859282599244 17.721359045926562 0.314666888064222 31
-3.240660608050439 17.709189789453291 0.314248030309727 31
-3.177765001435535 17.714489085851305 0.314143315871103 29
-3.130797663117892 17.810162007045669 0.315644222824710 31
-3.073360216837483 17.848571734827733 0.316132890204954 40
-3.008378716505300 17.843416095826058 0.315853651701957 42
-2.944121827882405 17.841970501802312 0.315644222824710 44
-2.880549071458195 17.844242149557530 0.315504603573211 42
-2.821359593848027 17.853696280807675 0.315504603573211 40
nan nan nan 0
-2.693666188870518 17.853184686178775 0.315155555444466 38
-2.629873378724001 17.852586842296823 0.314981031380093 42
-2.565833058019112 17.849781947033250 0.314771602502845 31
-2.501011546437823 17.840806645186937 0.314457459186974 27
-2.439261668896711 17.853390689385154 0.314527268812723 38
-2.373761477592542 17.838009876485668 0.314108411058229 38
-2.310967021938251 17.842220915018515 0.314038601432480 38
-2.247922161789840 17.844226950729219 0.313933886993856 40
-2.189466278426185 17.857537713034372 0.314038601432480 38
-2.126172798924135 17.857128902992802 0.313898982180981 38
-2.062679370340654 17.854509424219714 0.313724458116608 40
-1.999007592788934 17.849677111096806 0.313515029239361 40
-1.937335269998995 17.862510313726716 0.313619743677985 42
-1.873928280272436 17.859220164797136 0.313445219613612 34
-1.809962674856445 17.849736641863981 0.313165981110615 25
-0.900118697593632 9.196647987607230 0.161295140293374 5
nan nan nan 0
-0.837158798682207 9.216648314009497 0.161539473983496 53
-0.804981591943407 9.219514392579329 0.161539473983496 62
-0.772627594351559 9.220275422924390 0.161504569170622 62
-0.739637992144186 9.212949813014445 0.161330045106249 62
-0.707168156312244 9.211487845899311 0.161260235480500 62
-0.675009754916233 9.213900203888727 0.161260235480500 61
-0.643121415808097 9.220189990508601 0.161330045106249 62
-0.613205265942923 9.232248457226271 0.161504569170622 66
-0.580221597468938 9.222358200349213 0.161295140293374 67
-0.547551646129237 9.216342663598121 0.161155521041876 70
-0.515600522707788 9.222190981200431 0.161225330667625 70
-0.483301271522525 9.221937623274052 0.161190425854751 80
-0.451010072810526 9.221571168312979 0.161155521041876 72
-0.418727322495313 9.221091669451177 0.161120616229001 80
-0.386369677675823 9.218501239890632 0.161050806603252 92
-0.354572569004646 9.229784866726881 0.161225330667625 83
-0.322282658857289 9.228967847728837 0.161190425854751 92
-0.293541497068352 9.237929530259736 0.161330045106249 90
-0.261010654314303 9.228903420037083 0.161155521041876 95
-0.225523515149381 9.227838495072433 0.161120616229001 100
-0.193436609062180 9.234567270371993 0.161225330667625 78
-0.164460050931062 9.237128776199915 0.161260235480500 77
-0.132244070412187 9.239646063760159 0.161295140293374 82
-0.098293028927849 9.232070373350819 0.161155521041876 85
-0.066037871782894 9.228357946735050 0.161085711416127 76
-0.035450527454784 9.232525556863676 0.161155521041876 73
-0.003226971229024 9.244591226203260 0.161364949919123 72
0.025776647433709 9.230557930670988 -0.161120616229001 87
0.058034843619627 9.236410685416557 -0.161225330667625 100
0.090295124481374 9.238151434510460 -0.161260235480500 89
0.122594789124121 9.241779002671812 -0.161330045106249 80
0.154853871189574 9.241294762917347 -0.161330045106249 80
0.186989618291944 9.234700064181952 -0.161225330667625 85
0.216187367439841 9.242063642666450 -0.161364949919123 76
0.248446872886279 9.241252702111908 -0.161364949919123 76
0.280946226579020 9.248324253177330 -0.161504569170622 76
0.312888713479588 9.237294477796141 -0.161330045106249 78
0.345205653646791 9.238144316345567 -0.161364949919123 74
0.377940569669355 9.248871209283573 -0.161574378796371 74
0.410222852501977 9.247495603210727 -0.161574378796371 70
0.442882509019489 9.253996956236801 -0.161713998047869 72
0.474566900156324 9.240412248996957 -0.161504569170622 72
0.507257207564316 9.246686178395123 -0.161644188422120 68
0.539764083828623 9.248851783688830 -0.161713998047869 72
0.572539200569272 9.254894827623847 -0.161853617299367 70
0.603746748961503 9.260927170344781 -0.161993236550866 72
0.635795630347284 9.254773293832981 -0.161923426925116 70
0.667520874563760 9.244519559263004 -0.161783807673618 72
0.700994032557495 9.258085057687834 -0.162063046176615 70
0.733622385732622 9.259568625601377 -0.162132855802364 70
0.766269633686836 9.260937163366215 -0.162202665428113 70
0.798247966694736 9.254221367610411 -0.162132855802364 70
0.830903973176911 9.255361953088970 -0.162202665428113 72
0.861591290846866 9.252555687098829 -0.162202665428113 70
0.895037630999124 9.261434335496787 -0.162412094305360 99
0.929154351262636 9.276161294582979 -0.162726237621231 38
1.321843927023272 12.747698173782403 -0.223704945713100 13
1.367825973405201 12.756924505018166 -0.223949279403222 27
1.416970325563876 12.793810572668045 -0.224682280473588 24
1.467069997140515 12.836468765003175 -0.225519995982578 11
2.043748831535475 17.345350268180496 -0.304858635646468 2
nan nan nan 0
0.430986720751520 3.440582970588721 -0.060524945524499 2
0.440010006274987 3.425328224012227 -0.060280611834377 6
nan nan nan 0
0.464986884569002 3.430099210351552 -0.060420231085876 55
0.475855177936302 3.420532721297676 -0.060280611834377 71
0.484402759186767 3.395095070434807 -0.059861754079882 64
0.496829619704245 3.397340803725221 -0.059931563705632 67
0.509278053609153 3.399541101282704 -0.060001373331381 67
0.521141563869274 3.397742677956387 -0.060001373331381 63
0.531167145401522 3.388093569257567 -0.059861754079882 48
0.540774274949851 3.372397507225169 -0.059617420389760 47
0.554483861517350 3.382329433308292 -0.059826849267008 68
0.565295848961706 3.374456677712459 -0.059722134828384 61
0.578420542777671 3.380347060006009 -0.059861754079882 67
0.588151734252523 3.366488250030538 -0.059652325202635 60
0.599899388005190 3.364414707548539 -0.059652325202635 56
0.612713412217905 3.368202394557311 -0.059757039641259 55
0.624831658516604 3.368009252049909 -0.059791944454133 43
nan nan nan 0
0.647572429092417 3.359637959020419 -0.059722134828384 8
0.660066464389305 3.361281479728676 -0.059791944454133 16
nan nan nan 0
0.685112428537917 3.364429397079789 -0.059931563705632 85
0.694643460211904 3.354306394258465 -0.059791944454133 72
0.703049178096437 3.336207441243470 -0.059512705951137 66
0.715365071075414 3.339723727836083 -0.059617420389760 46
0.727869833930911 3.341114026702241 -0.059687230015510 8
0.739960536456521 3.340505301761774 -0.059722134828384 10
0.752055852883665 3.339852854596552 -0.059757039641259 10
0.761032981093264 3.325511522118153 -0.059547610764011 8
0.771730758845295 3.318939292458333 -0.059477801138262 10
0.786650272286100 3.327764832990048 -0.059687230015510 20
nan nan nan 0
0.810595085433563 3.330246290528335 -0.059826849267008 45
0.817897528281368 3.309924753081496 -0.059512705951137 12
0.829932817684501 3.308989211252065 -0.059547610764011 11
0.842464782042001 3.309947862762342 -0.059617420389760 8
0.855013539485373 3.310859296598056 -0.059687230015510 10
0.864031569221036 3.298182482098255 -0.059512705951137 10
0.874512085244169 3.291281081104795 -0.059442896325388 11
0.884954960962991 3.284346746865006 -0.059373086699639 11
0.902260040195322 3.300370295357519 -0.059722134828384 23
nan nan nan 0
0.923048699933393 3.290462991381182 -0.059652325202635 18
0.931794796042693 3.277603522276530 -0.059477801138262 12
0.943247680647073 3.272244849492527 -0.059442896325388 13
0.956345933938507 3.274690907046279 -0.059547610764011 11
0.967203637140415 3.269415140683839 -0.059512705951137 15
0.978610133192653 3.266019051543183 -0.059512705951137 15
0.989435261929664 3.262755905715374 -0.059512705951137 10
4.076647291224613 13.276079329068372 -0.242413925413868 17
3.572865978686053 11.485270944445400 -0.209952449440521 16
3.575094071351198 11.352566092587585 -0.207753446229423 22
3.587834865950462 11.262528848487536 -0.206322348901566 26
3.609945121079668 11.196646178564388 -0.205345014141078 29
3.640323036106292 11.157361967328374 -0.204856346760834 32
3.676112843873228 11.135092442838898 -0.204681822696461 40
3.715550682938072 11.130427992644165 -0.204821441947959 37
3.760778548852425 11.136336281582610 -0.205170490076705 39
3.800275120131345 11.125033202522090 -0.205205394889580 35
3.843003681057021 11.123040387302341 -0.205414823766827 30
4.002535017226434 11.448659202015284 -0.211697690084249 16
4.105127257540414 11.611840437229331 -0.214978742494458 22
4.107953950208658 11.498357902889497 -0.213128787412106 22
4.106625786163251 11.369221777405171 -0.210999593826758 26
4.109247967389584 11.253385098296306 -0.209114733931531 22
4.109727034698021 11.133917927126355 -0.207160064410555 27
4.115014610075996 11.029574190525247 -0.205484633392576 26
4.122446358442817 10.932814683324642 -0.203948821626095 26
4.117860110403575 10.806240736662938 -0.201854532853621 24
4.116752450587446 10.691030137011083 -0.199969672958394 27
4.115944265087550 10.584133119019549 -0.198224432314666 28
4.121420232022347 10.489670115196493 -0.196723525361060 29
4.125149183440400 10.387144498744654 -0.195082999155955 28
4.125642762121680 10.283598072267312 -0.193407568137976 31
4.119183011535611 10.169775138600842 -0.191522708242749 29
4.122098234572423 10.075750188426158 -0.190021801289143 31
4.121138777459461 9.978852908305225 -0.188451084709787 33
4.123616352759073 9.886891359479714 -0.186985082569056 33
4.124105932434441 9.786943788202363 -0.185379461176825 33
4.121445000082629 9.686006148824671 -0.183738934971721 31
4.124445030571881 9.599905811182072 -0.182377647269613 33
4.126894562146469 9.513903423437450 -0.181016359567505 33
4.127189968382157 9.424338284382202 -0.179585262239647 37
4.123676522814771 9.327572179121407 -0.178014545660292 36
4.121168142164720 9.234598642028637 -0.176513638706685 38
4.124631858546913 9.156343197839604 -0.175291970256076 36
4.127599815368562 9.078176870616632 -0.174070301805466 38
4.131740721976247 9.003737102916785 -0.172918442980605 46
4.127008968825320 8.911234314031802 -0.171417536026999 44
4.129302411240868 8.835179629223852 -0.170230772389263 40
4.131292078765886 8.763556713821169 -0.169113818377277 53
4.131792413603664 8.685879556894641 -0.167892149926667 48
4.139588853569547 8.624531538494473 -0.166984624791929 46
4.134805414932929 8.538038923062917 -0.165588432276946 53
4.129469009539354 8.451685666638108 -0.164192239761963 48
4.134190110529910 8.386998093762873 -0.163214905001475 51
4.136167560707263 8.321312649160646 -0.162202665428113 53
4.138299627294627 8.253197022534412 -0.161155521041876 57
4.135115356645450 8.171955976080739 -0.159864042965517 48
4.137252108822460 8.105819828530805 -0.158851803392155 58
4.136659595658285 8.038713148212484 -0.157804659005918 60
4.139822640498629 7.976302824386108 -0.156862229058304 56
4.144455444334223 7.917512255241206 -0.155989608736440 56
4.138459408285514 7.839334628251714 -0.154733035472956 60
4.139486294701439 7.775417184979684 -0.153755700712468 56
4.142955341163128 7.716874225025194 -0.152883080390604 54
4.142258310224180 7.651368200465077 -0.151870840817241 60
4.144987407105498 7.592982479391355 -0.150998220495377 65
4.146395381572636 7.532919628061837 -0.150090695360638 58
4.140642139604467 7.460700764318531 -0.148938836535777 61
4.148106412430182 7.413045495896300 -0.148275645091161 68
4.089456475693900 7.248739010847222 -0.145273831183948 23
4.005742599676616 7.045654596183771 -0.141469206580620 64
4.116825110971689 7.182567023232426 -0.144505925300707 59
4.149875484744357 7.182004366293585 -0.144785163803704 68
4.149757828664184 7.124276464544939 -0.143912543481840 54
4.138944674461629 7.051840209017333 -0.142725779844105 64
4.155389149264340 7.023581280303955 -0.142446541341108 61
4.152226509869300 6.962661531138604 -0.141504111393495 71
4.149719758730879 6.903563900184523 -0.140596586258756 71
4.156337834392510 6.857526134219023 -0.139968299627014 66
4.154188338472255 6.800314083959635 -0.139095679305150 59
4.082386301134883 6.633229871733755 -0.135954246146439 45
4.145569535012262 6.683514289598683 -0.137280629035672 66
4.049097140111631 6.477394056125251 -0.133336385180846 85
4.161217182453052 6.605343782611986 -0.136268389462310 66
4.146598455796762 6.536515032456700 -0.135116530637449 66
4.159696138038555 6.506837354318881 -0.134802387321578 66
4.157518915406418 6.451206548758456 -0.133964671812588 66
4.158230256293688 6.403113083140384 -0.133266575555097 66
4.160846684906871 6.358440213528079 -0.132638288923355 66
4.163202145563680 6.313827464737135 -0.132010002291612 59
4.165309156424314 6.271668781374802 -0.131416620472745 66
4.162709091231159 6.220528911206633 -0.130648714589504 66
4.158726212765324 6.170209985307502 -0.129880808706264 64
4.164511074527929 6.132495510303885 -0.129392141326020 61
4.166561933033263 6.085110230362352 -0.128728949881403 59
4.163931742642123 6.035962680443387 -0.127995948811037 58
4.162341458617832 5.993287500237425 -0.127367662179295 60
4.159162045467102 5.944314152377190 -0.126634661108929 63
4.164908693401125 5.908511991734890 -0.126180898541560 63
4.164667171985388 5.864590342746018 -0.125552611909818 56
4.171004794198303 5.828146642344200 -0.125098849342448 54
4.166764875721678 5.779487832519045 -0.124365848272082 58
4.163411486057838 5.732548044706937 -0.123667752014591 58
4.169227450791485 5.698613530818737 -0.123248894260096 60
4.169124288766684 5.658997236819411 -0.122690417254103 56
4.173360275980193 5.623534316346040 -0.122236654686734 54
4.166623922514211 5.573696298812521 -0.121468748803493 49
4.165605252719034 5.531961498797323 -0.120875366984626 56
4.169428835411089 5.498996037080461 -0.120456509230131 60
4.169178756633536 5.458980944929596 -0.119898032224138 58
4.178454558154482 5.431714724617516 -0.119618793721141 63
4.167994126200981 5.379159043885289 -0.118781078212152 56
4.168290849960249 5.340930869465343 -0.118257506019033 51
4.172079118092372 5.307482820071372 -0.117838648264538 56
4.171960988388483 5.269370236023557 -0.117315076071420 56
4.177861599036214 5.239140712712905 -0.116966027942674 60
4.169481548850341 5.189497625996800 -0.116198122059434 57
4.167444369522310 5.150039892993910 -0.115639645053441 53
4.170606003570693 5.119138373634367 -0.115255692111820 51
4.175765138161053 5.089090092942683 -0.114906643983075 51
4.174003683606955 5.049091180197141 -0.114348166977082 53
4.169851574470056 5.008365171964121 -0.113754785158214 59
4.171890491803367 4.975391511425026 -0.113335927403719 55
4.177620762823107 4.947048295534509 -0.113021784087848 59
4.177164613234749 4.913361805777217 -0.112568021520479 59
4.178683337402151 4.880522936201019 -0.112149163765984 57
4.174800493519141 4.841675779927935 -0.111590686759991 53
4.172008744220236 4.804425369824334 -0.111067114566872 53
4.176906388526440 4.776285460569342 -0.110752971251001 55
4.180336921860088 4.746669378995397 -0.110403923122255 59
4.182284884651142 4.715591664868794 -0.110019970180635 59
4.174742430149904 4.674118430407644 -0.109391683548893 61
4.171501136944056 4.639430826895021 -0.108903016168649 57
4.179617146285425 4.615947379959894 -0.108693587291402 59
4.176841192111096 4.580642897147841 -0.108204919911158 59
4.184690066190356 4.557197606407264 -0.107995491033910 59
4.172061489132133 4.511730675599707 -0.107262489963544 57
4.172794506559295 4.481042176140796 -0.106878537021924 59
4.178245341338089 4.454050567420833 -0.106599298518928 61
4.169049737762013 4.413272983705642 -0.105971011887185 61
4.185039773222424 4.400872736420696 -0.106005916700060 65
4.174097905474428 4.358796345982427 -0.105342725255443 61
4.172630307259938 4.326926311016225 -0.104923867500948 61
4.184922444300867 4.309465600481570 -0.104854057875199 36
nan nan nan 0
nan nan nan 0
2.683767775839735 2.706345963526048 -0.066528573338925 1
2.597113610260093 2.600742398905817 -0.064155046063454 6
2.621773426972095 2.607171420376961 -0.064538999005074 28
2.622321053156901 2.589573324039552 -0.064329570127827 28
2.631344374868046 2.580403938777311 -0.064329570127827 33
2.620278825534978 2.551671455260142 -0.063840902747583 40
2.617669934644134 2.531388557313680 -0.063561664244587 40
2.623605513988365 2.519465596384858 -0.063491854618837 39
2.628614332166383 2.508449787605559 -0.063422044993088 40
2.628645511087544 2.491006010069646 -0.063212616115841 42
2.622761921022195 2.468111034264038 -0.062863567987095 40
2.625517034862907 2.453479571119291 -0.062723948735597 37
2.631133656008341 2.441579436158608 -0.062654139109848 39
2.630817018664143 2.424249672057538 -0.062444710232600 42
2.633362109812592 2.409651857476763 -0.062305090981102 37
2.623997608052689 2.384307582312063 -0.061886233226607 35
2.626365763370423 2.369775143902541 -0.061746613975109 38
2.630153836611344 2.356589712270714 -0.061641899536485 38
2.635375891502834 2.344735974098080 -0.061572089910736 38
2.640547275860223 2.332874525872942 -0.061502280284987 38
2.633238945288146 2.310915173522087 -0.061153232156241 42
2.632243990023082 2.293826809030982 -0.060943803278994 41
2.634186255171636 2.279390625643086 -0.060804184027496 42
2.639093324318111 2.267575304439880 -0.060734374401747 41
2.637865000448839 2.250561923248571 -0.060524945524499 41
2.633498606053744 2.230999674293672 -0.060245707021503 41
2.629027931956535 2.211495456844930 -0.059966468518506 41
2.645940082942185 2.209996366253239 -0.060175897395754 42
2.644402889832330 2.193087635937023 -0.059966468518506 42
2.650498403776064 2.182572431616494 -0.059931563705632 44
2.641071671298487 2.159383826260842 -0.059547610764011 37
2.645488204091820 2.147630916424606 -0.059477801138262 38
2.649854904721139 2.135873515559799 -0.059407991512513 38
2.651049240700424 2.121612873130071 -0.059268372261015 38
2.661939227232348 2.114369535036868 -0.059338181886764 37
2.653601751286844 2.092682017810129 -0.058989133758018 38
2.644783982730621 2.071540254267086 -0.058640085629273 40
2.653577465492447 2.063523171696237 -0.058674990442147 40
2.657240499020357 2.052267614895172 -0.058605180816398 41
2.664388061056256 2.042979611470062 -0.058605180816398 41
2.646396636632065 2.013825072293828 -0.058046703810405 41
2.650218962678904 2.002164361284522 -0.057976894184656 41
2.653644717685577 1.990964711354103 -0.057907084558907 40
2.657370866321828 1.979300615988457 -0.057837274933158 42
2.661047957281279 1.967634795636907 -0.057767465307408 41
2.651779830320910 1.946501183372850 -0.057418417178663 42
2.652093652593945 1.932522288921638 -0.057278797927164 38
2.658823256794617 1.923252980872794 -0.057278797927164 38
2.662271810247173 1.911627563104479 -0.057208988301415 38
2.659158086462111 1.895358889875112 -0.056999559424168 38
2.652698484459633 1.876825392981501 -0.056720320921171 39
2.652687860578452 1.862957256229536 -0.056580701669673 38
2.659174633879189 1.853686297821735 -0.056580701669673 38
2.662340136135387 1.842117129447259 -0.056510892043924 38
2.658863725377486 1.826020217609062 -0.056301463166677 37
2.658612173901494 1.812222711498457 -0.056161843915178 37
2.656640516131927 1.797328736781955 -0.055987319850806 36
2.667878661945999 1.791388603520325 -0.056092034289429 37
2.670476754835017 1.780313290471531 -0.056022224663680 36
2.673339517999597 1.768773911146674 -0.055952415037931 37
2.666124990511057 1.750650745404956 -0.055673176534934 37
2.665518167759246 1.736966586138272 -0.055533557283436 37
2.668206726338651 1.725479828400478 -0.055463747657687 37
2.677579426828433 1.718315581329743 -0.055533557283436 37
2.680187727843816 1.706810333988862 -0.055463747657687 37
2.665843847192793 1.684625371552939 -0.055044889903192 38
2.671708045897131 1.675309576640711 -0.055044889903192 38
2.674143952329905 1.663860529841934 -0.054975080277443 39
2.676532524795257 1.652414916105453 -0.054905270651694 38
2.682284222908621 1.643062006982743 -0.054905270651694 38
2.674332528822694 1.625380423744701 -0.054626032148697 35
2.673140057979943 1.611904916932938 -0.054486412897199 35
2.675318275189751 1.600510843363497 -0.054416603271450 35
2.674010318541256 1.587079968161841 -0.054276984019952 36
2.684703489406393 1.580780125394388 -0.054381698458575 37
2.667757931539358 1.558287327946731 -0.053927935891206 35
2.672910730297301 1.549432155853254 -0.053927935891206 35
2.678302973558058 1.540092516558851 -0.053927935891206 35
2.680455362508238 1.528284774456646 -0.053858126265457 35
2.682292505450388 1.516950141632134 -0.053788316639708 35
2.677107046095820 1.501708082994245 -0.053578887762460 35
2.677090331697146 1.489437433637612 -0.053474173323837 37
2.676762777528149 1.477652440088024 -0.053369458885213 35
2.681904439354497 1.468299791946095 -0.053369458885213 35
2.681741323434254 1.456066736514553 -0.053264744446589 37
2.674482801227259 1.440060617468172 -0.053020410756467 36
2.675965286939880 1.428832396375678 -0.052950601130718 36
2.680936539870137 1.419482829423813 -0.052950601130718 34
2.682088263284639 1.408725015693482 -0.052880791504969 36
2.683442110472544 1.397506865791941 -0.052810981879220 36
2.677884422326152 1.382159215606043 -0.052601553001973 35
2.679132434876316 1.370981331868365 -0.052531743376223 35
2.687468377429118 1.363430525160812 -0.052601553001973 35
2.690424794497221 1.353142702250119 -0.052566648189098 37
2.689528863446525 1.341535775965444 -0.052461933750474 34
2.683440040965978 1.326821473399863 -0.052252504873227 36
2.686259535752902 1.316566378433135 -0.052217600060352 37
2.692637533499794 1.308055346276533 -0.052252504873227 34
2.690206191820857 1.294708806118542 -0.052112885621729 35
2.698318970555460 1.287032128370242 -0.052182695247478 34
2.691503431182928 1.273417472596216 -0.051973266370230 34
2.685068696881560 1.258921204108804 -0.051763837492983 35
2.689882801802945 1.248602025343839 -0.051763837492983 35
2.697858327772554 1.240876188946604 -0.051833647118732 35
2.698104623930059 1.230734716929379 -0.051763837492983 35
2.687806319454694 1.214720760161057 -0.051484598989986 36
2.688799906498328 1.202758322461005 -0.051414789364237 36
2.696638394289350 1.194985651173854 -0.051484598989986 36
2.693469058731946 1.182350253820457 -0.051344979738488 36
2.699413662586886 1.173738465631396 -0.051379884551363 37
2.688397049341984 1.158919336736926 -0.051100646048366 37
2.696104231799651 1.151098412707671 -0.051170455674115 37
2.696422252556373 1.140122695104459 -0.051100646048366 38
2.700385595928465 1.130703478934912 -0.051100646048366 38
2.697122317170524 1.117736185317676 -0.050961026796868 38
2.697307502484039 1.106796422590060 -0.050891217171119 38
2.693743935275017 1.094363690222620 -0.050751597919620 38
2.697547566229183 1.084954101904599 -0.050751597919620 38
2.706891887554587 1.077750409224922 -0.050856312358244 39
2.706916599674412 1.066828596142473 -0.050786502732495 39
