# This PCD file was generated using the MATLAB® pcwrite function
# from Computer Vision Toolbox®.
# .PCD v.7 - Point Cloud Data file format
VERSION .7
FIELDS x y z intensity
SIZE 8 8 8 1
TYPE F F F U
COUNT 1 1 1 1
WIDTH 913
HEIGHT 1
VIEWPOINT 0 0 0 1 0 0 0
POINTS 913
DATA ascii
-2.386762271641207 -1.344871423272272 -0.047819593638157 1
-2.331637445969851 -1.304176445009394 -0.046632830000422 2
nan nan nan 0
nan nan nan 0
nan nan nan 0
nan nan nan 0
nan nan nan 0
nan nan nan 0
nan nan nan 0
nan nan nan 0
nan nan nan 0
nan nan nan 0
nan nan nan 0
nan nan nan 0
nan nan nan 0
nan nan nan 0
nan nan nan 0
nan nan nan 0
nan nan nan 0
nan nan nan 0
nan nan nan 0
nan nan nan 0
nan nan nan 0
nan nan nan 0
-2.784584132974856 -1.277234402594920 -0.053474173323837 2
-2.775841368293548 -1.262684157753938 -0.053229839633715 11
nan nan nan 0
-2.815630168102241 -1.257133969513598 -0.053823221452582 1
-2.827316409079515 -1.250533460077284 -0.053962840704081 1
-2.817011504810899 -1.234236708503581 -0.053683602201084 1
-2.799289868361489 -1.214842829294291 -0.053264744446589 1
-2.854954019942964 -1.227175350491854 -0.054242079207077 1
-2.822422066313155 -1.201536816530594 -0.053543982949586 1
-2.826599017341134 -1.191677404776993 -0.053543982949586 1
-2.841813527910198 -1.186425911426235 -0.053753411826833 1
-2.819861939731327 -1.166295634842949 -0.053264744446589 1
-2.823915891675739 -1.156445374300168 -0.053264744446589 1
-2.809403748103420 -1.139067385726435 -0.052915696317844 1
-2.779958676593490 -1.115845770355783 -0.052287409686101 2
-2.778261661737848 -1.103919881709885 -0.052182695247478 19
-2.767210653454965 -1.088359881005966 -0.051903456744481 18
-2.757948528471428 -1.073615969193612 -0.051659123054359 23
-2.778473341225622 -1.070452554614794 -0.051973266370230 16
-2.763508014109144 -1.053623460276720 -0.051624218241485 22
-2.800846523402801 -1.056676122601869 -0.052252504873227 7
-2.813885075103891 -1.050389542381466 -0.052427028937600 3
-2.847548158526039 -1.051645387492794 -0.052985505943593 5
-2.884826443401108 -1.054554859976190 -0.053613792575335 5
-2.865923623719782 -1.036318523386646 -0.053194934820840 3
-2.922244496110261 -1.045164326870036 -0.054172269581328 3
-2.995628460338359 -1.059631020830647 -0.055463747657687 5
-3.027622187537612 -1.059071909525454 -0.055987319850806 5
-3.065317682036826 -1.060263260372156 -0.056615606482548 6
-3.084136884668467 -1.054733451276463 -0.056894844985544 6
-3.106743358932185 -1.050366049733084 -0.057243893114290 3
-3.223997565721998 -1.078108842552089 -0.059338181886764 1
-3.214450527015931 -1.062455517408760 -0.059093848196642 6
-3.220223988982289 -1.051287425659858 -0.059128753009517 7
-3.221970934846277 -1.039426386095293 -0.059093848196642 6
-5.526807818270050 -1.762766570690889 -0.101258862149119 14
-5.506225874333873 -1.735049851924268 -0.100770194768875 18
-5.506520779158243 -1.714035988469431 -0.100665480330251 16
-5.525850116061513 -1.698917803855546 -0.100909814020373 10
-3.256670017453694 -0.988831172628881 -0.059407991512513 2
-3.240947306727898 -0.971714256466156 -0.059058943383767 6
-3.217142563157970 -0.953571838450696 -0.058570276003523 7
-3.226209210809402 -0.944020854422820 -0.058674990442147 6
-5.523638731322971 -1.594316397390485 -0.100351337014380 14
-5.517631144234171 -1.571738576994209 -0.100141908137133 16
-5.525009010672821 -1.553009992927066 -0.100176812950007 16
-5.522688497455898 -1.531577069541473 -0.100037193698509 6
-3.232549634661944 -0.884931949293569 -0.058500466377774 2
-3.227896688941902 -0.871557787550894 -0.058360847126276 6
-3.234934342347271 -0.860749475198071 -0.058430656752025 6
-3.235984969527562 -0.848944764485398 -0.058395751939151 6
-5.515416018259494 -1.427410618499609 -0.099443811879641 16
-5.516489709241386 -1.407161005539139 -0.099374002253892 18
-5.517247134899243 -1.387884263824825 -0.099304192628143 18
-5.518176203171354 -1.367654900910136 -0.099234383002394 8
-3.232823021744965 -0.788077303832237 -0.058081608623280 2
-3.227776454846749 -0.774920565867623 -0.057941989371781 7
-3.214893277251204 -0.759968567144235 -0.057662750868785 6
-3.227264752635835 -0.751008033261075 -0.057837274933158 6
-5.523884071309678 -1.266153052719763 -0.098920239686523 14
-5.530220812034750 -1.247303351039680 -0.098955144499398 18
-5.520661607989778 -1.225923156603665 -0.098710810809276 18
-5.519046310496552 -1.205364949031181 -0.098606096370652 8
-3.226072479223364 -0.692198968445198 -0.057592941243036 2
-3.232382346013065 -0.681759030996526 -0.057662750868785 6
-3.230709356354568 -0.670223923686729 -0.057592941243036 7
-3.225191545329614 -0.657345123756554 -0.057453321991537 6
-5.515519932768238 -1.105113178551949 -0.098187238616157 10
-5.515419726074176 -1.085081662991397 -0.098117428990408 18
-5.521323189371685 -1.065238169554327 -0.098152333803282 18
-5.528937519825460 -1.046702590235878 -0.098222143429032 12
-3.232240421342356 -0.600227449513231 -0.057383512365788 1
-3.222511841544057 -0.586791747799491 -0.057174083488541 5
-3.224540494344041 -0.575539507343097 -0.057174083488541 6
-3.238348647821184 -0.566347214757236 -0.057383512365788 7
-3.222470547339133 -0.552563714559756 -0.057069369049917 4
-5.519901432783009 -0.926686118131993 -0.097698571235913 16
-5.517024530182305 -0.907402761998303 -0.097593856797289 18
-5.526081261995759 -0.889092163387924 -0.097698571235913 14
-5.546929726955758 -0.872593898672642 -0.098012714551784 4
-3.235489606649229 -0.497411418772315 -0.057139178675666 4
-3.219408472128459 -0.483441832016904 -0.056825035359795 6
-3.225033481601888 -0.472781153559324 -0.056894844985544 6
-3.222705050683181 -0.460954522331082 -0.056825035359795 5
-5.533586418229005 -0.771786506888263 -0.097524047171540 12
-5.536246743389418 -0.752465983638698 -0.097524047171540 16
-5.526945181042071 -0.731561911817500 -0.097314618294293 12
-5.600612077096104 -0.723416948985951 -0.098571191557777 2
-3.218212929743018 -0.404272447660585 -0.056615606482548 3
-3.227613053734184 -0.393442269865068 -0.056755225734046 6
-3.232938428658329 -0.382643478790081 -0.056825035359795 6
-3.226243132710672 -0.371006754976053 -0.056685416108297 6
-5.755476398013659 -0.641511799191318 -0.101084338084746 10
-5.712060701276517 -0.615485304615011 -0.100281527388631 16
-5.726107881105119 -0.596786479115111 -0.100490956265878 18
-5.750042142818268 -0.578998798363422 -0.100874909207499 4
-3.224320302837837 -0.313306810595540 -0.056545796856799 2
-3.225288672223406 -0.303175780175812 -0.056545796856799 6
-3.222344183499287 -0.291555185058666 -0.056475987231049 7
-3.231359971345516 -0.280434321523812 -0.056615606482548 7
-3.236304780276118 -0.269484939769524 -0.056685416108297 5
-5.742886306348582 -0.458026641929511 -0.100560765891628 8
-5.718529320731933 -0.436001141987741 -0.100107003324258 12
-5.739887725932318 -0.418489516497129 -0.100456051453004 10
-5.789191085524974 -0.401773752319424 -0.101293766961994 2
-3.222482394467860 -0.212907249638078 -0.056371272792426 4
-3.227197533306677 -0.201907120317161 -0.056441082418175 7
-3.225919646030308 -0.189959944418963 -0.056406177605300 9
-3.228559712139891 -0.178808806725645 -0.056441082418175 7
-3.233128894368686 -0.168309451543045 -0.056510892043924 5
-5.732371555362704 -0.278354014549384 -0.100176812950007 14
-5.731310600242054 -0.258252592993221 -0.100141908137133 14
-5.732177152915785 -0.238245012172228 -0.100141908137133 8
-3.225150991497905 -0.123334081595290 -0.056336367979551 3
-3.227560348440692 -0.112144891890623 -0.056371272792426 7
-3.233928302545122 -0.101065309893692 -0.056475987231049 9
-3.226265682299363 -0.089554234184080 -0.056336367979551 9
-3.222560415484069 -0.078194903709668 -0.056266558353802 9
-3.218815205488948 -0.066862533197153 -0.056196748728053 6
-5.754229182300686 -0.101445055501250 -0.100456051453004 14
-3.233184327944215 -0.045711111902738 -0.056441082418175 9
-3.231318555994716 -0.034967596602882 -0.056406177605300 15
-3.235420212715303 -0.023717293680863 -0.056475987231049 25
-3.189492724199253 -0.011690153743299 -0.055673176534934 45
-3.227508310807068 -0.000563306472311 -0.056336367979551 20
-3.223494780205184 0.009564329613384 -0.056266558353802 19
-3.215443141052434 0.020764714442193 -0.056126939102304 19
-3.221349858400617 0.032048259272197 -0.056231653540927 45
-3.221218363533319 0.043292673465390 -0.056231653540927 18
-3.233044072094495 0.054739675831284 -0.056441082418175 7
-3.230834019679195 0.065983940557802 -0.056406177605300 9
-3.224600048578625 0.076555025648367 -0.056301463166677 10
-3.230310038999180 0.087973831728976 -0.056406177605300 10
-3.226020173898468 0.098000261443383 -0.056336367979551 9
-3.237649730426169 0.109666749423826 -0.056545796856799 9
-3.227276691976936 0.120030966946719 -0.056371272792426 5
-5.654459235063984 0.230072049641189 -0.098780620435025 18
-5.657617177194406 0.249984937129426 -0.098850430060774 12
-3.223845374092780 0.153724485959328 -0.056336367979551 2
-3.223289134729061 0.164976869834692 -0.056336367979551 6
-3.238667318847837 0.177100736671469 -0.056615606482548 15
-3.204091968125777 0.186430067681202 -0.056022224663680 30
-3.113606124050750 0.192072740234033 -0.054451508084325 5
-2.985207293004911 0.194614336661584 -0.052217600060352 9
-2.918675000835881 0.200510671954748 -0.051065741235492 27
-2.937939312692633 0.211624937967549 -0.051414789364237 40
-2.943164747040518 0.222330862693042 -0.051519503802861 67
-2.926422927862010 0.231342349118235 -0.051240265299864 43
-2.941540874566995 0.242872443845624 -0.051519503802861 57
-2.940675170653535 0.253138858000328 -0.051519503802861 57
-2.945748785206876 0.263937558038214 -0.051624218241485 55
-2.934901770896294 0.272779259033521 -0.051449694177112 57
-2.937912624579185 0.283406335614000 -0.051519503802861 57
-2.932925906399204 0.293261924806970 -0.051449694177112 59
-2.937851563053825 0.304115662889112 -0.051554408615735 55
-2.940748774658692 0.314794511442563 -0.051624218241485 55
-2.931681697456592 0.324178594088006 -0.051484598989986 55
-2.924571837619836 0.333729941815867 -0.051379884551363 59
-2.931333077313123 0.344871179685817 -0.051519503802861 57
-2.936066904519960 0.355823091259600 -0.051624218241485 55
-2.942744236351125 0.367059756102786 -0.051763837492983 55
-2.933511261020475 0.376311867414544 -0.051624218241485 53
-2.932179815513441 0.386549440028726 -0.051624218241485 53
-2.938739113293840 0.397855412335857 -0.051763837492983 53
-2.933371096516091 0.407560716466701 -0.051694027867234 55
-2.947768145329147 0.420054450000917 -0.051973266370230 53
-2.926496925389349 0.427451384110107 -0.051624218241485 52
-2.926964691235149 0.437960079536914 -0.051659123054359 57
-2.939254530120433 0.450294168676972 -0.051903456744481 53
-2.937664803198835 0.460551338316071 -0.051903456744481 52
-2.936039281758681 0.470802896282452 -0.051903456744481 55
-2.934461899752734 0.480536564766460 -0.051903456744481 53
-2.932766636366771 0.490776820756555 -0.051903456744481 53
-2.934977851511573 0.501684951657234 -0.051973266370230 53
-2.937148600492557 0.512614491470434 -0.052043075995979 52
-2.943307630724906 0.523752954390953 -0.052182695247478 53
-2.933591329099206 0.532594998169184 -0.052043075995979 50
-2.923849257657942 0.541375608677631 -0.051903456744481 53
-2.933731637331818 0.553804051330925 -0.052112885621729 53
-2.931780627139198 0.564041311858866 -0.052112885621729 52
-2.941568015601573 0.576579556518695 -0.052322314498976 55
-2.931591265491364 0.585789739080033 -0.052182695247478 49
-2.929528617452413 0.596019333448224 -0.052182695247478 53
-2.931452474747177 0.606541065413651 -0.052252504873227 50
-2.933230975597075 0.617594056968899 -0.052322314498976 55
-2.934858215538217 0.629179084218107 -0.052392124124725 52
-2.928736503454228 0.638567826264502 -0.052322314498976 50
-2.930620825211730 0.648629820594939 -0.052392124124725 52
-2.932240680805553 0.659733533584695 -0.052461933750474 55
-2.933818679163544 0.670856447929760 -0.052531743376223 53
-2.935354706010282 0.681998406541446 -0.052601553001973 53
-2.938794869425426 0.693618601834805 -0.052706267440596 57
-2.944134210446555 0.705737247945697 -0.052845886692094 63
-2.945413548798737 0.717469829077174 -0.052915696317844 29
-2.931243840737713 0.724866605321078 -0.052706267440596 32
nan nan nan 0
nan nan nan 0
-3.249048081684806 0.838446233022222 -0.058570276003523 2
-3.226756500887189 0.844718161641510 -0.058221227874778 7
-3.227653679244037 0.857002848192200 -0.058291037500527 7
-3.228504364394227 0.869304078335155 -0.058360847126276 7
-3.221438510239294 0.880077314611821 -0.058291037500527 7
-3.212565379618689 0.889715703741350 -0.058186323061903 6
-5.631716939607933 1.579822965070317 -0.102096577658109 10
-5.643479304201491 1.604393152341113 -0.102410720973980 4
-3.259122339423654 0.938232970456491 -0.059198562635266 2
-3.221272667135860 0.939525373117882 -0.058570276003523 7
-3.214137999594085 0.949630778249588 -0.058500466377774 7
-3.210803587945444 0.960844428130927 -0.058500466377774 6
-2.920368891347200 0.885049380232858 -0.053264744446589 2
-2.848440323641833 0.874118340261434 -0.052008171183105 3
-2.818636691180896 0.875749361322472 -0.051519503802861 3
-2.758335701559043 0.867583251590128 -0.050472359416624 3
-2.717483133117088 0.864124958528048 -0.049774263159133 2
-2.706836052160321 0.871154974071371 -0.049634643907634 2
-2.680961965268908 0.873167078613712 -0.049215786153139 2
-2.626618817712703 0.865620742310497 -0.048273356205526 7
-2.610150136544784 0.870811964600544 -0.048029022515404 8
-2.614673296779378 0.882475684117806 -0.048168641766902 8
-2.622931634700521 0.895473730473431 -0.048378070644150 8
-2.631130949939612 0.908540136240624 -0.048587499521397 8
-2.605288837731619 0.909807591714513 -0.048168641766902 8
-2.613410610107487 0.922891404910873 -0.048378070644150 8
-2.617869259220988 0.934241176245699 -0.048517689895648 8
-2.614592199981579 0.943373553563316 -0.048517689895648 8
-2.615040524894796 0.953864931763511 -0.048587499521397 8
-2.607942547878346 0.961603712936359 -0.048517689895648 8
-2.608317618824103 0.972097965341983 -0.048587499521397 7
-2.614265184390950 0.984721184263432 -0.048762023585770 7
-2.618635170203543 0.995772300629456 -0.048901642837268 8
-2.624476453650030 1.008493368386130 -0.049076166901641 8
-2.617034543140253 1.016657551468162 -0.049006357275892 8
-2.602301127781251 1.021402809927254 -0.048796928398645 8
-2.608014332796202 1.034165865213720 -0.048971452463018 8
-2.619238929237288 1.049211990499192 -0.049250690966014 7
-2.621121617013258 1.060598657732107 -0.049355405404638 8
-2.609999214945751 1.066715474892856 -0.049215786153139 8
-2.610332509969543 1.076434446422459 -0.049285595778889 8
-2.617635179887152 1.090152423999253 -0.049495024656136 9
-2.611778814476200 1.098963657633128 -0.049460119843261 9
-2.620809998797901 1.113547671857786 -0.049704453533383 9
-2.609556162739579 1.119535600465878 -0.049564834281885 9
-2.607467308265572 1.129432646158248 -0.049599739094760 9
-2.609005467299951 1.140931171849517 -0.049704453533383 9
-2.610495055837539 1.152454168387490 -0.049809167972007 9
-2.610312368020719 1.162731881799012 -0.049878977597756 8
-2.609885412006976 1.173476567660419 -0.049948787223505 8
-5.732791063586846 2.600509359671388 -0.109880350929137 2
-5.680041979642010 2.600526256965136 -0.109042635420147 2
-5.670472422690482 2.621327184303281 -0.109042635420147 4
-3.240199255241350 1.511618272753037 -0.062409805419726 1
-3.229740597236184 1.519800562640472 -0.062305090981102 6
-3.224415826566380 1.531065202081899 -0.062305090981102 6
-3.224731525825297 1.544340507315640 -0.062409805419726 4
-5.648216090605656 2.729238269673632 -0.109496397987517 8
-5.693891737960858 2.777096556369420 -0.110578447186628 2
nan nan nan 0
-3.224350501265337 1.599880121782165 -0.062828663174221 1
-3.227687195367412 1.615600806900958 -0.063003187238593 7
-3.233023209277071 1.631701288054764 -0.063212616115841 7
-3.236218104320383 1.647512807758641 -0.063387140180214 3
-5.651504235922567 2.901985304015327 -0.110892590502499 8
-5.650218393196665 2.926293253459723 -0.111067114566872 4
nan nan nan 0
-3.241505223585684 1.706883371384641 -0.063945617186207 1
-3.222865733937824 1.712185330941239 -0.063701283496085 7
-3.211581452401473 1.720591773488112 -0.063596569057461 4
nan nan nan 0
-5.644425117919254 3.073607623454776 -0.112184068578858 6
-5.651731818316244 3.101929681903805 -0.112533116707604 6
nan nan nan 0
-3.234071492831584 1.804499589793886 -0.064643713443698 4
-3.215552980706335 1.808914522070615 -0.064399379753576 6
-5.691363087575353 3.227890737464817 -0.114208547725583 2
nan nan nan 0
-5.668689647619948 3.267544963209053 -0.114208547725583 4
-5.653791275257454 3.285303116043887 -0.114138738099834 6
-3.292197975083700 1.928432821811866 -0.066598382964674 1
-3.232066536283016 1.908394486223808 -0.065516333765562 6
-5.675244680492976 3.375074805389060 -0.115255692111820 4
-5.673719801847322 3.401033286511700 -0.115465120989068 4
nan nan nan 0
-5.752313940190122 3.502964475793456 -0.117559409761542 2
-5.740051267220191 3.523022457331261 -0.117559409761542 2
-3.244800234842233 2.007160205702146 -0.066598382964674 4
-3.251349742835164 2.026937649142801 -0.066877621467670 1
-5.662206361259327 3.557406241716741 -0.116721694252552 4
-5.717966703219017 3.618940307010356 -0.118117886767535 2
-5.701927481940597 3.636727050821067 -0.118048077141786 4
nan nan nan 0
-3.235984155239616 2.095856324017095 -0.067296479222165 3
-5.673579482494230 3.702794487693135 -0.118257506019033 2
-5.653936612084312 3.718181403772299 -0.118117886767535 4
-3.247198159348466 2.151719510444909 -0.067994575479657 1
-5.571296733264053 3.719809111011599 -0.116931123129800 4
-5.571551734340582 3.748163417287508 -0.117210361632796 6
-5.571676508177537 3.776564719699969 -0.117489600135793 6
-3.233352486564913 2.208125188193950 -0.068343623608402 8
-3.232214624824558 2.223932252681641 -0.068483242859900 3
-3.237971149317971 2.243750110271034 -0.068762481362897 1
-2.644762633165399 1.846384780986162 -0.056301463166677 9
-2.600681513453781 1.829146130070996 -0.055498652470562 7
-2.587754265212278 1.833588623524021 -0.055359033219063 5
-2.560179572143408 1.827507036822090 -0.054905270651694 21
-2.553784784628922 1.836432597470563 -0.054905270651694 30
-2.539261744388257 1.839470124482673 -0.054730746587321 24
-2.534440647617280 1.849501372568297 -0.054765651400196 27
-2.528293544833629 1.857895711437894 -0.054765651400196 26
-2.541080010111282 1.880986723015929 -0.055184509154690 21
nan nan nan 0
-2.553469086199915 1.917895811903051 -0.055742986160684 7
nan nan nan 0
nan nan nan 0
nan nan nan 0
nan nan nan 0
-3.243778729127269 2.526122214459519 -0.071764295270110 5
-3.250675304420038 2.549771309536903 -0.072113343398855 1
nan nan nan 0
nan nan nan 0
nan nan nan 0
-3.246793040720245 2.618896226463690 -0.072811439656347 5
-3.246944065405329 2.637779025788119 -0.073020868533594 3
nan nan nan 0
nan nan nan 0
nan nan nan 0
-3.243553470167434 2.711069918488797 -0.073788774416835 5
-3.234070309281976 2.722375516234093 -0.073788774416835 3
nan nan nan 0
nan nan nan 0
-3.265545286213745 2.808812062854091 -0.075184966931817 1
-3.249674900799879 2.814956702136436 -0.075045347680319 5
-3.240815431561490 2.825151948894865 -0.075045347680319 3
nan nan nan 0
nan nan nan 0
-3.249884697179798 2.893507320907919 -0.075952872815058 3
-3.254653296758745 2.918183327818476 -0.076301920943804 3
-3.262257430173668 2.945607981621558 -0.076720778698298 1
nan nan nan 0
nan nan nan 0
-3.242993416544738 2.990452925160082 -0.077000017201295 3
-3.250119083132831 3.018083541464083 -0.077418874955790 3
nan nan nan 0
nan nan nan 0
-3.244991244714627 3.076154167510716 -0.078047161587532 3
-3.248698065729155 3.101270531899751 -0.078396209716278 3
-3.264349326965595 3.136967102236842 -0.079024496348020 3
-5.702035946521645 5.517943383015636 -0.138502297486282 2
-3.250962645997098 3.168053638975347 -0.079233925225267 3
-3.257011410612425 3.196189622864082 -0.079652782979762 5
-3.263465868020858 3.223836698812922 -0.080071640734257 3
nan nan nan 0
-3.266309642861609 3.272015409296293 -0.080699927365999 1
-3.240790128174340 3.269195479217104 -0.080350879237253 5
-3.246192952244957 3.297588750341900 -0.080769736991748 5
-3.312942951036096 3.388977083980852 -0.082724406512724 1
-3.262679215896352 3.359776443517917 -0.081747071752236 3
-3.242602926732938 3.362508270969363 -0.081537642874989 5
-3.247442638188851 3.391137780108263 -0.081956500629483 5
-3.265901963298372 3.434332691905512 -0.082724406512724 1
-3.248402203801670 3.439896346585094 -0.082584787261226 3
-3.258260817277001 3.474553157487219 -0.083143264267219 5
-3.243994822700706 3.482412438443348 -0.083073454641470 5
-3.267124758852748 3.531881510629598 -0.083980979776208 1
-3.249365187820324 3.537373673001872 -0.083841360524710 3
-3.247778661161654 3.560513655769662 -0.084120599027707 5
-3.252692704829940 3.588478681585423 -0.084539456782201 3
nan nan nan 0
-3.243552555741780 3.628990617641779 -0.084958314536696 5
-3.257413037188493 3.670202621715087 -0.085656410794187 5
-3.263092040521092 3.702553897054602 -0.086145078174431 5
-3.247514004337749 3.710911995692499 -0.086075268548682 16
-3.216177552061703 3.701093471842454 -0.085586601168438 22
-3.198013219046260 3.706241528028990 -0.085446981916940 30
-3.173346771734992 3.703715251758811 -0.085132838601069 31
-3.150032847157314 3.702585168281802 -0.084853600098072 31
-3.135798769752967 3.712030692834571 -0.084818695285198 31
-3.100975355501460 3.696908700677378 -0.084225313466330 31
-3.080383842947674 3.695879675414603 -0.083980979776208 26
-3.066189125862231 3.705069135784441 -0.083946074963334 28
-3.053237340766469 3.715749560646889 -0.083946074963334 5
-3.033927670290808 3.718637548713745 -0.083771550898961 1
-2.995754313150222 3.698128566772088 -0.083073454641470 1
-2.997866649069150 3.727261808374840 -0.083492312395964 1
-2.958633133533982 3.704889320552479 -0.082759311325598 15
-2.950652150790287 3.721462031560422 -0.082898930577097 35
-2.971618087317926 3.776252999368286 -0.083876265337585 50
-2.953493858670327 3.780299750138727 -0.083736646086086 45
-2.951412572453975 3.802196885788179 -0.084015884589083 28
-2.951549679289888 3.829899105473740 -0.084399837530703 18
-2.965433982264908 3.877223981866875 -0.085202648226818 30
-2.961556214795706 3.900292506164896 -0.085481886729815 41
-2.944994082748579 3.905302112644734 -0.085377172291191 24
-2.949320446287399 3.939570276972875 -0.085900744484309 24
-2.955134710646664 3.977641714388854 -0.086494126303177 41
-2.948353773747970 3.997588838080423 -0.086703555180424 31
-2.956349783876234 4.036382675711093 -0.087331841812167 24
-2.943418123984569 4.048295048410296 -0.087366746625041 26
-2.947993856642884 4.084488386107280 -0.087925223631034 28
-2.962834274141283 4.135392606135845 -0.088797843952899 42
-2.953450753567378 4.154373185449484 -0.088972368017271 14
-2.956225904823278 4.189164937829215 -0.089495940210390 12
-2.960268223528173 4.222993314244767 -0.090019512403508 38
-2.959214545874042 4.252998256840773 -0.090438370158003 32
-2.959123673786730 4.284692486450290 -0.090892132725373 12
-5.718704703388431 8.342583720120773 -0.176548543519560 4
-5.743542157191657 8.441854281108046 -0.178223974537539 2
nan nan nan 0
-5.735678827085851 8.558157845526502 -0.179829595929769 1
-5.721275148272364 8.601437089328615 -0.180318263310013 1
nan nan nan 0
nan nan nan 0
nan nan nan 0
-3.252189437035424 5.038681381158801 -0.104679533810827 10
nan nan nan 0
-5.515663151331827 8.677897368256973 -0.179480547801024 5
-5.498139288915010 8.717394367789606 -0.179899405555518 3
-3.222895018553821 5.149706694905433 -0.106040821512935 2
-3.261866167437786 5.252660007369344 -0.107925681408161 2
-5.433825176556338 8.818755740150468 -0.180806930690257 1
-3.252235840830731 5.319662899918529 -0.108833206542900 2
nan nan nan 0
-3.245771214504439 5.389079222660680 -0.109810541303388 2
nan nan nan 0
-3.242740361425508 5.470092736570174 -0.110997304941123 2
nan nan nan 0
-3.236719468045915 5.547869273704273 -0.112114258953109 2
nan nan nan 0
nan nan nan 0
-5.755243274283609 10.106403280037412 -0.203006391678482 1
nan nan nan 0
-5.782287405242802 10.320791413676849 -0.206496872965939 1
nan nan nan 0
-3.251806616611721 5.897934342915047 -0.117559409761542 2
nan nan nan 0
-3.244869425464491 5.983775494941596 -0.118815983025026 2
-5.783053556337417 10.753781273789670 -0.213128787412106 1
-5.728543404486389 10.742141778997501 -0.212500500780364 3
-5.677924349042921 10.737324157770587 -0.212011833400120 4
-5.644123962729149 10.764162413048425 -0.212151452651618 4
-5.641616225527767 10.846686469993353 -0.213408025915103 4
-5.649546806725778 10.955177495161987 -0.215153266558831 4
-5.647684866104413 11.046050243636863 -0.216549459073814 1
-3.316271996204037 6.542388260239011 -0.128030853623912 2
nan nan nan 0
nan nan nan 0
nan nan nan 0
nan nan nan 0
nan nan nan 0
nan nan nan 0
nan nan nan 0
nan nan nan 0
nan nan nan 0
-3.358090901907068 7.237695027077502 -0.139270203369522 4
-3.329465013808343 7.242105315610178 -0.139130584118024 7
-3.302507179268816 7.250043615860220 -0.139060774492275 7
-3.267308661111444 7.239655277148866 -0.138641916737780 4
-3.231406809439382 7.227284280139793 -0.138188154170411 30
-3.206969033167529 7.240348334594809 -0.138223058983285 16
-3.181675963053859 7.251498634909241 -0.138223058983285 4
-3.147711290561274 7.235786541119274 -0.137734391603041 35
-3.121643214041378 7.244893546185971 -0.137699486790167 45
-3.085346537639349 7.229996814225699 -0.137210819409923 47
-3.052305833411816 7.222303092150175 -0.136861771281177 45
-3.026304678710692 7.231068966634617 -0.136826866468303 42
-3.010231973061033 7.263756815831849 -0.137245724222798 59
-3.004835062822335 7.326544931357399 -0.138223058983285 40
-3.002564693571947 7.394425153299578 -0.139305108182397 38
-3.000602622676905 7.464233486784397 -0.140422062194383 40
-3.002625778466626 7.545265390481906 -0.141748445083617 38
-3.006781378299273 7.625352407378512 -0.143074827972850 35
-3.003410960336187 7.695412616185081 -0.144191781984836 16
nan nan nan 0
nan nan nan 0
nan nan nan 0
nan nan nan 0
nan nan nan 0
nan nan nan 0
nan nan nan 0
nan nan nan 0
nan nan nan 0
nan nan nan 0
-2.941100538591578 8.479030812663188 -0.156652800181057 2
-2.886833666165623 8.417366873790405 -0.155326417291823 2
-2.861097399670762 8.443042375203495 -0.155605655794820 2
nan nan nan 0
nan nan nan 0
nan nan nan 0
nan nan nan 0
nan nan nan 0
-3.795497835261426 12.008542239953464 -0.219830511484023 1
-3.742829222366060 11.987359166923401 -0.219202224852281 3
-3.722178437431834 12.069142869245143 -0.220458798115765 1
-3.650894017258142 11.986415696717957 -0.218713557472037 3
-3.606151523169389 11.989511911784414 -0.218539033407664 8
-3.577371846293229 12.046116545541709 -0.219341844103779 1
-3.095357657742254 10.557930440992076 -0.192046280435868 3
nan nan nan 0
nan nan nan 0
nan nan nan 0
-3.064214653420018 11.011875678523932 -0.199515910391025 1
-3.060694382223761 11.149776443335599 -0.201819628040747 1
-3.112690636789825 11.496246407978822 -0.207893065480921 1
-3.068415296797718 11.491585620149440 -0.207613826977925 1
-3.558793131916822 13.517243170805692 -0.243984641993224 3
-2.747478090763490 10.585592447311225 -0.190894421611007 12
-2.741504907269039 10.700713879595785 -0.192814186319108 1
-2.894071417962431 11.462492892541848 -0.206357253714440 3
-0.806199341365059 3.240716707293258 -0.058291037500527 1
-0.769179439076169 3.138631124173472 -0.056406177605300 1
-0.759546036820095 3.149205041087150 -0.056545796856799 2
-0.747624498258175 3.147946008506260 -0.056475987231049 2
-0.734810469661790 3.142747808418342 -0.056336367979551 6
nan nan nan 0
-0.719147716018973 3.173029694726659 -0.056790130546921 45
-0.709372988588068 3.181375950697388 -0.056894844985544 42
-0.695139648174497 3.172234485837462 -0.056685416108297 42
-0.684062248348464 3.174641649696084 -0.056685416108297 42
-0.672701524388606 3.172980197257440 -0.056615606482548 42
-0.664476992158186 3.189012586067350 -0.056859940172670 38
-0.653341212640238 3.191312615064426 -0.056859940172670 13
nan nan nan 0
-0.635480916941486 3.215303272766154 -0.057208988301415 43
-0.620825670653663 3.199834130587319 -0.056894844985544 42
-0.611148462301886 3.209839345966591 -0.057034464237043 41
-0.601408950847283 3.219815895050215 -0.057174083488541 41
-0.592327812284134 3.233697403175390 -0.057383512365788 46
-0.579976207632063 3.229840667569957 -0.057278797927164 39
-0.568351870302856 3.229876048430398 -0.057243893114290 32
nan nan nan 0
-0.550018372922330 3.255359092451527 -0.057627846055910 10
nan nan nan 0
-0.527278460174821 3.259119583076790 -0.057627846055910 42
-0.516836227103263 3.266865663876066 -0.057732560494534 45
-0.506264262361944 3.266497126461917 -0.057697655681659 48
-0.496655196535125 3.280107374052341 -0.057907084558907 45
-0.488127127524010 3.301602963770696 -0.058256132687652 20
nan nan nan 0
-0.474786297207817 3.378280043755400 -0.059547610764011 1
-0.459734328976375 3.356142448902934 -0.059128753009517 1
-0.443784844825578 3.326012708074340 -0.058570276003523 2
-0.431399534287635 3.321592422307004 -0.058465561564900 11
-0.417443841095839 3.295157556061903 -0.057976894184656 23
-0.408871783959810 3.320411089072705 -0.058395751939151 33
nan nan nan 0
-0.390267114447630 3.372980112516268 -0.059268372261015 1
-0.384587823020111 3.417906940174240 -0.060036278144255 1
-0.368321563417925 3.379470107293709 -0.059338181886764 1
-0.360717152862583 3.420508555893012 -0.060036278144255 1
-0.347964047213675 3.413789303999320 -0.059896658892757 1
-0.332912286722018 3.383141792700964 -0.059338181886764 2
-0.319967592561660 3.372338733027546 -0.059128753009517 11
-0.308331544559908 3.381454556648489 -0.059268372261015 15
nan nan nan 0
-0.288332212179233 3.419342177330797 -0.059896658892757 1
-0.278971830933512 3.452218981190079 -0.060455135898750 1
-0.270314771425502 3.505056425819714 -0.061362661033489 1
-0.259839820302535 3.529910241312291 -0.061781518787984 1
-0.647871731472017 9.195801749132292 -0.160911187351754 10
nan nan nan 0
-0.585809974377604 9.234027233447858 -0.161504569170622 85
-0.554171834495335 9.245996401073427 -0.161679093234994 91
-0.518707320231250 9.220013902513992 -0.161190425854751 89
-0.485993540347497 9.211783766356611 -0.161015901790378 100
-0.455937144573310 9.223331012536150 -0.161190425854751 100
-0.423922449608166 9.228861516631994 -0.161260235480500 100
-0.391620343753762 9.228287159549669 -0.161225330667625 100
-0.359016173331993 9.219607042872189 -0.161050806603252 83
-0.327539899243566 9.240788478333220 -0.161399854731998 106
-0.295281532378738 9.241875507900360 -0.161399854731998 107
-0.264632745222551 9.242803881780056 -0.161399854731998 107
-0.232166716394674 9.235675056662144 -0.161260235480500 95
-0.198100089388763 9.226467782860444 -0.161085711416127 92
-0.165856553300995 9.225103698139092 -0.161050806603252 100
-0.135293411108094 9.227602456027693 -0.161085711416127 100
-0.103193925019116 9.238016353649302 -0.161260235480500 100
-0.069334209331760 9.238332528322907 -0.161260235480500 100
-0.037029797518204 9.224520511845936 -0.161015901790378 100
-0.006444169710460 9.230591672244133 -0.161120616229001 85
0.025787815825144 9.234557305857587 -0.161190425854751 82
0.022434369927460 9.181372533766456 -0.481176781697626 19
0.054530611895673 9.189227182754282 -0.481595469347569 14
0.086681962325167 9.196969532941894 -0.482014156997513 14
0.118784848944923 9.196610925341744 -0.482014156997513 14
0.151148414225212 9.212116182215423 -0.482851532297400 14
0.356474790435903 17.913864650055487 -0.939011726910898 13
0.387056455268505 16.546759578317303 -0.867416138770551 15
0.450771103663270 16.766923372261211 -0.879034721056485 5
0.520636437886516 17.138562970659553 -0.898608368691346 26
nan nan nan 0
0.612274070995449 16.539957246141451 -0.867416138770551 20
nan nan nan 0
0.524259866785253 11.912105709459619 -0.624891317540749 22
0.565837681467758 11.910203128389259 -0.624891317540749 27
0.607713832049745 11.914139422953548 -0.625205333278207 8
0.609946828966595 11.190009428621995 -0.587314100958316 8
0.659876166168957 11.375239400932154 -0.597153260731989 13
nan nan nan 0
0.771280705262579 11.862639001235555 -0.623007223116003 37
0.812411264557876 11.855889285024977 -0.622797879291032 43
0.852786631673967 11.839036526582989 -0.622065175903630 37
0.893505597230306 11.828021279629148 -0.621646488253687 35
0.931938563202464 11.815037899787749 -0.621123128691257 35
0.973339064121947 11.813703360335881 -0.621227800603743 35
1.013886866419835 11.802274080336167 -0.620809112953800 35
1.054722529904725 11.794684409150957 -0.620599769128828 16
1.116403930752960 12.011675246173354 -0.632218351414761 4
1.182489448490874 12.258196951124916 -0.645407012387983 4
nan nan nan 0
nan nan nan 0
1.865420131340131 17.426390124540259 -0.918496032063664 22
1.937872479246739 17.524985865877987 -0.924043643425416 27
1.992467457608166 17.460567614007783 -0.921008157963325 35
2.040802207747140 17.346392995995640 -0.915355874689088 24
2.103502599792713 17.357008351988092 -0.916297921901461 41
2.206349974177960 17.688465057628200 -0.934196818936547 24
2.297813621831006 17.912435719020230 -0.946443432697396 54
2.356149048296769 17.872623696579574 -0.944768682097622 23
2.349037778609096 17.373858109548582 -0.918810047801122 8
2.371237818607261 17.088590028768930 -0.904155980053098 7
nan nan nan 0
2.463666472283182 16.887819803268062 -0.894421492191910 57
2.525257878062701 16.896895004159422 -0.895363539404283 63
2.586640520147497 16.903771494551577 -0.896200914704170 60
2.646865922227086 16.902532297807547 -0.896619602354114 44
nan nan nan 0
2.145739708089313 13.103251410711666 -0.695858874206181 37
2.192784089900376 13.103561023322458 -0.696277561856125 31
2.237837660656935 13.091889536670879 -0.696068218031153 45
2.285583571452304 13.095803376419161 -0.696696249506068 46
2.327598615123210 13.080286626971604 -0.696277561856125 45
2.373956698362606 13.076012373216617 -0.696486905681097 33
2.418131521301278 13.059790541258160 -0.696068218031153 13
2.466297338147228 13.065008301404102 -0.696800921418554 20
2.195788429622782 11.402567643163128 -0.608562499192951 13
2.564723345636446 13.072504138918699 -0.698161656280871 11
2.609232269953150 13.069803162138047 -0.698475672018328 15
2.665580391652409 13.113460906328342 -0.701301813655447 3
2.505762546652202 12.110513594826170 -0.648128482112616 1
3.136468832523939 14.896496217445424 -0.797809316967436 4
3.193468060404259 14.908892657263166 -0.799065379917266 2
2.511705134839517 11.529387351624896 -0.618401658966624 4
nan nan nan 0
2.520214340044587 11.210438792644792 -0.602177512531312 4
2.193988536421265 9.594846363759380 -0.515823184730454 3
2.450756580108125 10.548176933707934 -0.567531109498483 1
2.213204986757998 9.377135277032572 -0.504937305831922 4
2.240336938522946 9.346045773879904 -0.503681242882091 6
2.477002176760705 10.176507924885572 -0.548899509075995 1
2.281573478987672 9.233230659033882 -0.498447647257797 1
2.290815319714151 9.140370953517920 -0.493842083108418 3
2.336984132213020 9.188452200868001 -0.496877568570509 9
2.371145194730291 9.181758824874022 -0.496982240482995 3
2.398119608632773 9.154105434248955 -0.495935521358136 1
2.443393852563903 9.195866010686389 -0.498656991082769 1
2.475478529276810 9.187280950114337 -0.498656991082769 1
2.508035096064734 9.186728439646238 -0.499075678732712 1
2.110701889092590 7.626449308427588 -0.414710117269087 1
2.179109839751039 7.773257769109376 -0.423083870267958 32
2.201863685923979 7.750234074277785 -0.422246494968071 27
2.189674048899108 7.606229831542959 -0.414814789181573 31
2.210059923002260 7.577449025217854 -0.413663398144228 45
2.234420320811526 7.557806005437349 -0.413035366669313 50
2.261934237529371 7.553787018068546 -0.413244710494284 49
2.279593990694744 7.517175748585036 -0.411674631806996 28
2.304061117512794 7.503444862882154 -0.411360616069538 21
2.321819529848905 7.472875238241483 -0.410104553119708 7
2.349089101903848 7.468535525609465 -0.410313896944680 3
2.324185827612100 7.304638841377534 -0.401730800120837 5
nan nan nan 0
nan nan nan 0
2.411809438571904 7.314042264638374 -0.403614894545583 3
2.451248886985564 7.343043214005518 -0.405708332795301 3
nan nan nan 0
nan nan nan 0
nan nan nan 0
nan nan nan 0
nan nan nan 0
nan nan nan 0
nan nan nan 0
nan nan nan 0
nan nan nan 0
4.108247977557689 11.023184868607823 -0.616517564541878 1
4.118540086709166 10.934014755918849 -0.612330688042443 17
2.836369997770424 7.447212988001128 -0.417640930818692 24
2.855891917357796 7.420491048223941 -0.416698883606319 28
2.869470860661407 7.378832077003819 -0.414919461094059 26
2.884254670079910 7.340886955006607 -0.413349382406770 24
2.898270560871377 7.305291188351352 -0.411883975631968 22
2.909635896253207 7.259905568850879 -0.409895209294736 12
4.125882183750917 10.191426200987404 -0.576218878234812 13
nan nan nan 0
4.122979271655043 9.983309448559769 -0.566065702723681 37
4.132431200797754 9.908026071696685 -0.562611529611646 34
4.134430812153896 9.816233163896925 -0.558215309287239 30
nan nan nan 0
3.401376828910202 7.920730331180787 -0.451763974289091 11
3.454428189631424 7.967447119818769 -0.455113475488640 26
3.511050342412556 8.021207958355083 -0.458881664338131 19
3.585042017391086 8.113033594439873 -0.464847963349827 4
4.121873777768759 9.244849725373863 -0.530477252478479 37
4.132807631289941 9.183051285739479 -0.527755782753845 32
4.125187900672023 9.081284079396211 -0.522731530954523 39
4.133555968814996 9.015993914530956 -0.519800717404918 43
4.133970441513925 8.934442950482643 -0.515927856642940 42
4.128796171488913 8.842141631662372 -0.511426964406047 39
4.129839033228332 8.764440075728626 -0.507763447469041 45
4.137251221154835 8.701269714830820 -0.504937305831922 45
4.131538288807012 8.615466579103243 -0.500750429332486 40
4.138099492712947 8.552449940931071 -0.497924287695368 43
4.139617655112841 8.476206962938724 -0.494365442670847 43
4.131222109000521 8.384666755950018 -0.489864550433954 42
4.139129171679733 8.327270940377188 -0.487352424534293 52
4.144895682697088 8.266351832410674 -0.484630954809660 47
4.146681806299105 8.198365484003096 -0.481490797435083 47
4.137152110779481 8.109118890284224 -0.477094577110676 50
4.138440406499568 8.045624881087690 -0.474163763561071 48
4.144425495168246 7.988580978352209 -0.471651637661410 48
4.144976125703840 7.925238779140293 -0.468720824111805 50
4.142797413868187 7.854191436389741 -0.465371322912256 48
4.143408482729240 7.786060139432077 -0.462231165537680 47
4.147895565525098 7.729312827288822 -0.459719039638019 48
4.147284450572609 7.663846802838893 -0.456683554175928 40
3.842998439918971 7.042707322596958 -0.420467072455811 16
3.837711932306003 6.975003707844273 -0.417222243168748 19
3.833937754881855 6.910916482018281 -0.414186757706657 22
3.827373002171802 6.848277632629834 -0.411151272244567 24
3.837528166877599 6.810515329991949 -0.409685865469764 24
3.836806520696783 6.751257046160696 -0.406964395745131 26
3.842477442416921 6.706629336261197 -0.405080301320385 24
3.846884841215645 6.660315175188799 -0.403091534983153 22
3.859055656752121 6.627860405800220 -0.401940143945809 26
3.889098659695323 6.628808179842460 -0.402777519245696 70
3.915263887382706 6.620349681594001 -0.403091534983153 80
3.932341512255762 6.593947345985328 -0.402358831595752 100
3.952247836975659 6.575045323126122 -0.402044815858294 100
3.971035220606779 6.554376532504128 -0.401626128208351 91
4.051138951776942 6.634227024812998 -0.407383083395075 28
4.063697746424568 6.605446412606087 -0.406441036182702 35
4.019372396381296 6.482584040769131 -0.399742033783605 73
4.118180146220417 6.590465884807855 -0.407278411482589 28
4.152867287653868 6.594641338810469 -0.408429802519934 28
4.160804494888367 6.558908806308647 -0.407069067657617 28
4.153552417894419 6.497226991830433 -0.404138254108012 43
4.167553558757337 6.469256660238613 -0.403300878808125 52
4.162922766369477 6.412788964910597 -0.400684080995978 56
4.163415537054455 6.364790064513416 -0.398590642746260 54
4.168020849684889 6.323536666388013 -0.396915892146486 56
4.167969200329740 6.275673985716722 -0.394822453896768 56
4.176520676606458 6.241168202652108 -0.393566390946938 17
3.522051717159037 5.227558529189967 -0.330344555805461 14
3.545886649395872 5.223494835090412 -0.330867915367891 10
3.549218555835043 5.187386396852349 -0.329402508593088 10
3.486821734165748 5.058212430917610 -0.321970802806590 35
nan nan nan 0
3.503999993054580 5.009811515881344 -0.320400724119302 54
3.520315721171196 4.995917099213681 -0.320296052206816 61
3.536577157309150 4.981969840372816 -0.320191380294330 64
3.559461568830812 4.975471688629056 -0.320610067944274 100
3.581478506652633 4.969497785940432 -0.321028755594217 54
3.597630076211214 4.955349590821371 -0.320924083681732 50
3.621979735450577 4.952434051375510 -0.321552115156647 36
nan nan nan 0
nan nan nan 0
4.184705121947576 5.601960083260801 -0.366456365613093 66
4.165806384608207 5.536249142783699 -0.363106864413544 50
4.169422529305328 5.500981686015312 -0.361746129551228 57
4.166783516757290 5.457819201856578 -0.359862035126482 56
4.171199320369468 5.424242065622490 -0.358605972176651 56
4.177877725029560 5.393858831602739 -0.357559253051792 54
4.177023770483467 5.354046940560996 -0.355884502452018 56
4.171006919836921 5.308025353892266 -0.353791064202300 57
4.173996824163456 5.270051341589725 -0.352325657427498 57
4.172439238913491 5.230467927357542 -0.350650906827724 59
4.173845783307328 5.198645075424863 -0.349394843877893 59
4.171873701575217 5.159195339860252 -0.347720093278119 57
4.173093856644741 5.122192045961222 -0.346254686503316 54
4.175745263586429 5.089065871393464 -0.344998623553486 57
4.179877992805593 5.059792589889373 -0.343951904428627 57
4.179630993029212 5.023676319293916 -0.342486497653824 59
4.171486533410997 4.978438376306391 -0.340393059404107 59
4.170805979541800 4.942477266240235 -0.338927652629304 59
4.172512220616755 4.909625613662122 -0.337671589679474 59
4.179234946231952 4.882891968517929 -0.336834214379586 57
4.186669501548571 4.855440722419694 -0.335996839079699 59
4.177402037568488 4.810636209009449 -0.333903400829982 59
4.179706190319258 4.779487029230840 -0.332752009792637 61
4.177883878255978 4.743884008538751 -0.331286603017834 61
4.181165166097321 4.714329164674516 -0.330239883892976 63
4.184291190297721 4.684809397944257 -0.329193164768117 61
4.176291046296380 4.646388849203938 -0.327413742255857 61
4.173720209778890 4.611052080933415 -0.325948335481054 57
4.181717543728085 4.587598618479836 -0.325320304006139 57
4.184199643047038 4.558260193239660 -0.324273584881280 61
4.184606434569358 4.525296970176210 -0.323017521931449 61
4.177238350429354 4.485814290313833 -0.321238099419189 61
4.175699516616484 4.454451822981789 -0.319982036469359 63
4.182996866189955 4.431134644415472 -0.319354004994443 61
4.185446302129613 4.401300231039902 -0.318307285869584 61
4.189733147772085 4.375123427555236 -0.317469910569697 61
4.181410693787259 4.336031379687144 -0.315690488057437 59
4.183998019023866 4.308513664338315 -0.314748440845064 40
nan nan nan 0
nan nan nan 0
nan nan nan 0
2.605739706598256 2.611202878094693 -0.193329022361435 7
nan nan nan 0
2.630495127567906 2.597645320036369 -0.193747710011378 40
2.624837096248035 2.574921464097796 -0.192700990886519 35
2.626656055329884 2.558775043847645 -0.192177631324090 35
2.619339020071850 2.534772588113369 -0.191026240286745 30
2.619530507263267 2.517310557638508 -0.190398208811830 31
2.630184473110488 2.509071200632664 -0.190502880724316 31
2.636026822567215 2.497127742131052 -0.190293536899344 32
2.635566062856192 2.480160181192499 -0.189665505424428 31
2.629614624767976 2.457308665727864 -0.188618786299570 32
2.626463998188721 2.437246193535131 -0.187781410999682 33
2.632018053596851 2.425356403738644 -0.187572067174711 32
2.634574190213769 2.410760968821239 -0.187153379524767 32
2.637060573804292 2.396177306656874 -0.186734691874824 33
2.630580203377411 2.373577841650631 -0.185687972749965 33
2.626949399305573 2.353718570711129 -0.184850597450078 34
2.632165091927574 2.341879274492530 -0.184641253625106 32
2.640323740080872 2.332677036159337 -0.184641253625106 34
2.638633444704978 2.316464694002101 -0.184013222150191 36
2.628637105606706 2.291490953023514 -0.182757159200360 34
2.627559337747549 2.274458376723925 -0.182129127725445 33
2.641541251961589 2.270480149502935 -0.182547815375388 33
2.634651168277745 2.247819960217580 -0.181501096250529 34
2.648577162678976 2.243773652925132 -0.181919783900473 34
2.635382198712692 2.216055253030583 -0.180454377125670 33
2.640035376289653 2.204282409290964 -0.180245033300699 33
2.646947294280356 2.195977629501796 -0.180245033300699 32
2.648430250346572 2.181645180697147 -0.179826345650755 32
2.649845474599379 2.167329198113626 -0.179407658000811 34
2.644991478992190 2.147993652270606 -0.178570282700924 34
2.643144516528694 2.131225849123672 -0.177942251226009 34
2.650567780114195 2.121986568819211 -0.177942251226009 37
2.654831737076743 2.110235878151269 -0.177732907401037 37
2.655910325897856 2.096006681349847 -0.177314219751094 37
2.653777714696384 2.079332063873702 -0.176686188276178 34
2.645255435253261 2.057792618107889 -0.175639469151319 36
2.655583765411090 2.050988069165661 -0.175848812976291 34
2.659556958150488 2.039275254405241 -0.175639469151319 34
2.663480776257567 2.027559721841596 -0.175430125326348 36
2.648234423114093 2.001391195377068 -0.173964718551545 32
2.648467167748496 1.987802665386221 -0.173546030901602 32
2.648983510657602 1.973772348393488 -0.173127343251658 31
2.655857123384797 1.964513645456517 -0.173127343251658 34
2.662698375331081 1.955231005540738 -0.173127343251658 32
2.656595419253372 1.936512572989181 -0.172289967951771 32
2.650394385594685 1.917860685576801 -0.171452592651884 31
2.657072821601409 1.908597398400217 -0.171452592651884 31
2.653961669992291 1.892353672945527 -0.170824561176969 31
2.660551048176157 1.883078089020062 -0.170824561176969 33
2.657302464236646 1.866890664939763 -0.170196529702053 30
2.657249918820738 1.853033824104489 -0.169777842052110 30
2.663702025085465 1.843747001598571 -0.169777842052110 30
2.670121674981627 1.834437713617291 -0.169777842052110 29
2.673208532839870 1.822855634536400 -0.169568498227138 30
2.666322828979434 1.804557668742902 -0.168731122927251 31
2.669289778684737 1.793012126946550 -0.168521779102279 30
2.671897688671728 1.781934248338500 -0.168312435277307 31
2.678101521862458 1.772596728736969 -0.168312435277307 32
2.680934075565591 1.761044528998468 -0.168103091452336 31
2.673679804539440 1.742949937031454 -0.167265716152448 32
2.669685915895187 1.727097273611474 -0.166637684677533 32
2.675698345797356 1.717767808623332 -0.166637684677533 33
2.678309230730988 1.706271160144907 -0.166428340852561 33
2.677496083944477 1.692642760745910 -0.166009653202618 32
2.669852822046651 1.674795518032562 -0.165172277902731 33
2.672291450929093 1.663354932560017 -0.164962934077759 33
2.667885621436032 1.647719742772232 -0.164334902602844 34
2.673620983015850 1.638397045579573 -0.164334902602844 32
2.682736918663744 1.631129613551929 -0.164544246427815 34
2.667892032998653 1.609375366220937 -0.163288183477985 33
2.670065991856767 1.598001530408331 -0.163078839653013 33
2.675627791204672 1.588671525202940 -0.163078839653013 34
2.674273402251336 1.575267420142181 -0.162660152003069 34
2.686653517488175 1.569953556327652 -0.163078839653013 34
2.667926268781537 1.546542764574826 -0.161613432878211 34
2.669845621763305 1.535229323582703 -0.161404089053239 34
2.678658070901733 1.527879588680444 -0.161613432878211 33
2.680498395033792 1.516553023886127 -0.161404089053239 34
2.675325332897736 1.501322557768713 -0.160776057578323 34
2.673569029622697 1.488089432040965 -0.160357369928380 33
2.671495567922619 1.475353194486269 -0.159938682278436 34
2.676629235973696 1.466018946344795 -0.159938682278436 34
2.689005387414456 1.460010801455142 -0.160357369928380 33
2.687051228324599 1.446828018207520 -0.159938682278436 34
