# This PCD file was generated using the MATLAB® pcwrite function
# from Computer Vision Toolbox®.
# .PCD v.7 - Point Cloud Data file format
VERSION .7
FIELDS x y z intensity
SIZE 8 8 8 1
TYPE F F F U
COUNT 1 1 1 1
WIDTH 871
HEIGHT 1
VIEWPOINT 0 0 0 1 0 0 0
POINTS 871
DATA ascii
-5.200359193695745 8.335257437381395 0.859529934977405 3
-5.162842283357580 8.339806899352162 0.858135443093442 7
-5.148298656782068 8.381545575031755 0.860575803890377 7
-5.121083970794144 8.402868087463276 0.860924426861367 7
-5.102030503015690 8.437742201487705 0.862667541716321 7
-5.093045480384665 8.489670746205501 0.866153771426227 3
nan nan nan 0
nan nan nan 0
nan nan nan 0
nan nan nan 0
-6.275310466971873 10.882311472958744 1.099033916047969 3
-6.175951744155224 10.796924511745347 1.088226603947260 3
-6.124460775635910 10.794156402511625 1.085786243150325 3
nan nan nan 0
nan nan nan 0
nan nan nan 0
nan nan nan 0
nan nan nan 0
-5.844033917970951 10.812824895334670 1.075327554020606 2
nan nan nan 0
-5.706685614836712 10.741758611085963 1.064171618948906 5
-5.659886288169773 10.739472497804611 1.062079881122962 5
-5.650046789152868 10.812138470124449 1.067309225687822 5
-5.641601790461814 10.888404029446866 1.072887193223672 5
-5.641796923111267 10.982463911147910 1.080208275614475 5
nan nan nan 0
nan nan nan 0
nan nan nan 0
nan nan nan 0
nan nan nan 0
nan nan nan 0
nan nan nan 0
nan nan nan 0
nan nan nan 0
nan nan nan 0
nan nan nan 0
-3.342011813210120 7.232776243070290 0.697071630495770 8
-3.310505451931923 7.234106564873239 0.696025761582798 8
-3.271246819582253 7.214770451174344 0.693062466329378 24
-3.240327777536086 7.213423191905902 0.691842285930910 37
-3.211888250123748 7.217408981235282 0.691145039988929 37
-3.185176590753063 7.218349714788774 0.690273482561453 37
-3.157566533493327 7.223947242882650 0.689750548104967 12
-3.129164645363753 7.227611650399033 0.689053302162986 8
-3.091353223957009 7.209192224516445 0.686264318395060 33
-3.092649107073892 7.282290659273951 0.692190908901901 4
-3.033997019902402 7.214068902840281 0.684695515025603 16
-3.008030748980009 7.222776317670012 0.684521203540107 33
-2.997991469949121 7.270070764298311 0.688007433250014 37
-2.997449143901874 7.341362005197065 0.693759712271359 33
-2.996445338864059 7.412737301782492 0.699511991292704 28
-3.002210096951890 7.498468638833459 0.706658762198012 33
-3.004646934125097 7.581139230922822 0.713456910132330 28
-3.001449486173859 7.650933918590814 0.719034877668180 33
-3.007897141859636 7.746800140679786 0.727053206000964 4
-5.691092068214404 14.818071041156974 1.388739604941185 3
-5.710116316445793 15.024087708233299 1.406170753490717 4
-5.730428903332886 15.229415557018411 1.423601902040248 4
-5.677233410631866 15.249325703968443 1.423601902040248 4
nan nan nan 0
nan nan nan 0
nan nan nan 0
nan nan nan 0
nan nan nan 0
nan nan nan 0
nan nan nan 0
nan nan nan 0
nan nan nan 0
nan nan nan 0
nan nan nan 0
nan nan nan 0
nan nan nan 0
-3.403964774490522 10.711194445391486 0.983291089679079 3
-3.364323176158927 10.702828464451748 0.981547974824126 6
-3.314535484144814 10.674548734794177 0.977887433628725 18
-3.278892134001325 10.698054961662848 0.978933302541697 37
-3.238065805192136 10.697993550586784 0.977887433628725 34
-3.201430439210863 10.704854833978461 0.977538810657734 34
-3.160094605320749 10.702588846518928 0.976318630259267 34
-3.115274485428699 10.694970380754281 0.974575515404314 34
-3.077923092615094 10.705779560626175 0.974575515404314 34
-3.047603941325851 10.741375832464797 0.976841564715753 25
-3.046078858355307 10.880496079672241 0.988520434243939 9
-0.850819904576364 3.078386788692506 0.279421311248992 3
-0.830636055043867 3.046737773206508 0.276283704510076 19
-0.822598874860408 3.057171346876891 0.276980950452058 36
-0.813966201197030 3.067727146040897 0.277678196394039 36
-0.805774071600625 3.080187361213945 0.278549753821516 9
-0.794519794479178 3.081051997173204 0.278375442336020 4
-0.786262718355839 3.091393435391389 0.279072688278001 3
-0.777404407771998 3.101849637020340 0.279769934219983 4
-0.762212119089410 3.089203100901178 0.278375442336020 6
-0.751894666575780 3.093780930353808 0.278549753821516 9
-0.730956893978405 3.051692888181453 0.274540589655123 30
-0.724873378256667 3.073617721857576 0.276283704510076 36
-0.724953510885291 3.122707890262406 0.280467180161964 61
-0.707835830428085 3.098026714680806 0.278026819365030 43
-0.700950400181329 3.117973512432931 0.279595622734487 49
-0.687481090407923 3.108728966149592 0.278549753821516 40
-0.676320873763476 3.107098036191536 0.278201130850525 10
-0.667138804238596 3.117232989576109 0.278898376792506 9
-0.655843407575267 3.117593033120070 0.278724065307011 30
-0.643343580590573 3.112058824159123 0.278026819365030 36
-0.636988862272069 3.133699726082237 0.279769934219983 55
-0.620975547906323 3.110504293963136 0.277503884908544 46
-0.614109538146421 3.130142474363568 0.279072688278001 54
-0.603179560522966 3.132267046792883 0.279072688278001 54
-0.591886575114903 3.138475746762853 0.279421311248992 52
-0.579840443500695 3.134645235988185 0.278898376792506 51
-0.568921088946861 3.130570540277881 0.278375442336020 51
-0.559387487620056 3.140383427760281 0.279072688278001 31
-0.551162493513928 3.158018693199188 0.280467180161964 61
-0.536107235784108 3.136356507931480 0.278375442336020 48
-0.525156042352310 3.138208763655644 0.278375442336020 54
-0.514520427799415 3.141988982161313 0.278549753821516 54
-0.503945313832157 3.149755792966162 0.279072688278001 54
-0.494794942774765 3.163306428173180 0.280118557190973 51
-0.482795467818362 3.155082510708260 0.279246999763497 49
-0.470895751521831 3.150837045392450 0.278724065307011 31
-0.461308483771401 3.158295678989480 0.279246999763497 7
-0.451686535963418 3.169749022737701 0.280118557190973 7
-0.439248357776104 3.161439228154494 0.279246999763497 12
-0.426071821384376 3.147158208112082 0.277852507879534 37
-0.414302382076111 3.142700406324320 0.277329573423048 36
-0.407892914073330 3.179698968691968 0.280467180161964 61
-0.394818349633596 3.165286859899098 0.279072688278001 43
-0.386164076999434 3.186424923067539 0.280815803132955 46
nan nan nan 0
-0.363909404645425 3.189043184079106 0.280815803132955 3
-0.354209454413866 3.198153540029678 0.281513049074936 1
-0.342194013534878 3.191446340111594 0.280815803132955 1
-0.331873680243527 3.200548431685131 0.281513049074936 3
-0.320699659442943 3.201687388180444 0.281513049074936 4
-0.308755113727765 3.194854732919440 0.280815803132955 21
-0.296862185813240 3.187977797374290 0.280118557190973 36
-0.287154696140405 3.204870135229358 0.281513049074936 27
nan nan nan 0
-0.264773665747820 3.206796736484399 0.281513049074936 1
-0.252636156737456 3.195784275128865 0.280467180161964 1
-0.244480855260451 3.236381246459270 0.283953409871870 1
-0.231178264910581 3.209393558452043 0.281513049074936 1
-0.222425704730301 3.245960075235057 0.284650655813852 3
-0.209801159463508 3.226834795392593 0.282907540958898 6
-0.199047636380615 3.217535041370141 0.282035983531422 12
nan nan nan 0
-0.177889955392004 3.242719013686956 0.284127721357366 7
-0.165854340040437 3.229391840758619 0.282907540958898 4
-0.154587762457827 3.253886604476315 0.284999278784842 3
-0.143053433549968 3.250425467426427 0.284650655813852 3
-0.132027751958547 3.230951561998626 0.282907540958898 3
-0.121641604375325 3.255284738878784 0.284999278784842 4
-0.110210350817207 3.253698267598837 0.284824967299347 6
nan nan nan 0
-0.087974656746245 3.272313412234911 0.286393770668805 61
-0.076132282076049 3.254673964259526 0.284824967299347 46
-0.064810525437796 3.256911881964969 0.284999278784842 34
-0.293584424294408 17.893233215527633 1.565665762718931 47
-0.234142392178932 17.886139518679865 1.564968516776950 52
-0.171630186393609 17.878878669266673 1.564271270834969 52
-0.106076021426577 17.875402927743373 1.563922647863978 52
-0.043688311289432 17.879649065982729 1.564271270834969 57
nan nan nan 0
0.054992836165164 9.267118915014095 0.485677673934519 74
0.084033524402253 9.258911711589359 0.485258986284575 60
0.116227157525133 9.248576464518198 0.484735626722146 66
0.151770963514238 9.250058997620169 0.484840298634632 70
0.182483817884249 9.251501717653813 0.484944970547117 68
0.215008263542636 9.260791971914120 0.485468330109547 68
0.247599787962832 9.269967768151652 0.485991689671976 68
0.279594726795115 9.257068915593637 0.485363658197061 66
0.311906224119400 9.256036550633169 0.485363658197061 68
0.342894167188353 9.262934907607393 0.485782345847005 66
0.375549155784118 9.269664038497639 0.486201033496948 68
0.409345322466149 9.264234695027152 0.485991689671976 68
0.441681042543524 9.262749372309900 0.485991689671976 66
0.473807197641427 9.257161889689870 0.485782345847005 68
0.506772157998780 9.267417273691240 0.486410377321920 66
0.537963899886384 9.273661429226195 0.486829064971863 66
0.570576993051219 9.275714068650309 0.487038408796835 66
0.600945525344018 9.267791745651712 0.486724393059378 76
0.634500024605117 9.259549160926230 0.486410377321920 78
0.667063213412366 9.283291765932519 0.487771112184236 82
0.699163685883417 9.276923502022441 0.487561768359265 82
0.733475410430853 9.278280722440545 0.487771112184236 88
0.763583265804850 9.267835357324996 0.487352424534293 84
0.793205970480369 9.271360727068435 0.487666440271751 78
0.825918621902163 9.272514203239984 0.487875784096722 78
0.859017268523800 9.277529727316402 0.488294471746666 69
0.892734230059659 9.288391357843411 0.489027175134067 65
1.788625900648907 17.888129338040496 0.942151884285475 25
1.850850577653188 17.879790244543170 0.942047212372989 8
1.130944170795384 10.565059311971986 0.556854574424922 3
1.177913878980291 10.652364539680708 0.561669482399273 1
1.203283685795035 10.561085368582320 0.557063918249894 1
2.101389580742369 17.888276929821792 0.943931306797735 5
2.166698988157516 17.878472048192439 0.943826634885249 34
2.231318192373140 17.888637043154297 0.944768682097622 40
2.291388124800433 17.887082578100216 0.945082697835080 40
2.356418681207511 17.898776889084328 0.946129416959938 43
2.420397446980532 17.878144739561094 0.945501385485023 40
2.484438218174505 17.881456592415418 0.946129416959938 40
2.542850687427578 17.889382333546518 0.946966792259826 40
2.607584567599158 17.896208257135786 0.947804167559713 40
2.668977864473989 17.901290762495357 0.948536870947114 43
2.735174972967493 17.895336892252345 0.948746214772086 43
2.793578085926073 17.880248371923361 0.948432199034628 43
2.859757111354618 17.894054807927290 0.949688261984459 37
2.931026216780844 17.898710297935114 0.950525637284346 40
2.994315951457376 17.912531355951543 0.951781700234176 37
nan nan nan 0
1.887592373368530 10.837751651249853 0.576532893972269 1
1.925202582743220 10.818962270234181 0.575904862497354 1
nan nan nan 0
3.316801483468765 17.930787832086651 0.955654560996154 5
nan nan nan 0
3.444162080370689 17.918963562870303 0.956282592471070 51
3.507073784964407 17.908792054947213 0.956387264383556 48
3.581291560785727 17.922613453874401 0.957852671158358 48
3.647016853670733 17.925660530754886 0.958690046458245 48
3.702505215077143 17.910202842933025 0.958480702633273 48
3.767467898823599 17.908896450297856 0.959108734108189 48
3.835810392961375 17.922978880451662 0.960574140882991 48
3.904297034914542 17.936802072050074 0.962039547657794 48
3.962893617003994 17.919856049625622 0.961830203832822 48
4.013155496114804 17.851352299568735 0.958899390283217 20
4.016721201380327 17.580219949836650 0.945082697835080 14
4.022056966315492 17.324847504305058 0.932103380686830 13
4.030468147286586 17.103405487887130 0.920903486050840 8
4.025669269191311 16.806882020220385 0.905726058740386 10
4.028142393699081 16.561786177295840 0.893270101154565 15
4.030390513116117 16.322697738997110 0.881128159306202 17
4.036360269771881 16.105108888638082 0.870137608495184 17
4.037595748512961 15.886449029000715 0.859042385771680 16
4.041157943618543 15.671123412652246 0.848156506873148 16
4.041244828112611 15.448239999081705 0.836851940324672 16
4.037579871957042 15.238542547675795 0.826175405251111 15
4.042029826368496 15.043044705679341 0.816336245477438 15
4.046180068486788 14.841216651982410 0.806183069966307 17
4.050607189418733 14.655669890913291 0.796867269755063 19
4.048401019860398 14.451042988655237 0.786504750418960 19
4.054089641434348 14.279274879351632 0.777921653595117 19
4.058628971333662 14.107645057135374 0.769338556771274 18
4.061461159957860 13.934241982426443 0.760650788034946 20
4.064829530075350 13.766739488854460 0.752277035036075 20
4.061928179642648 13.582163453109100 0.742961234824831 20
4.066472492843672 13.426450149386007 0.735215513300875 20
4.071736565427194 13.276600772459910 0.727783807514377 22
4.073713414616654 13.127591091480134 0.720352101727879 20
4.074019423220570 12.968477173584416 0.712397036378951 22
4.076291000312825 12.819039572582314 0.704965330592453 22
4.080016993191689 12.677350665845150 0.697952312455899 22
4.082470554332856 12.542203436172636 0.691253310056802 22
4.086528348051949 12.400063599977248 0.684240291920248 22
4.087214764340403 12.265175468420818 0.677541289521151 22
4.086616906734168 12.122136546618558 0.670423599472110 21
4.090386332405113 11.987990922306858 0.663829268985500 22
4.091043493678904 11.861074508897168 0.657548954236346 22
4.092952282397817 11.733572634676745 0.651268639487193 22
4.097343261559582 11.615620898702913 0.645511684300469 22
4.093580444085621 11.477089741062297 0.638603338076401 22
4.093643681667557 11.351879695356052 0.632427695239733 24
4.094251326933094 11.230563306929115 0.626461396228038 22
4.098206168459566 11.120626612732069 0.621123128691257 24
4.097785546375453 10.995112241607973 0.614947485854590 22
4.095307296476447 10.872335698321358 0.608876514930409 25
4.098417229235841 10.766511090469399 0.603747591218600 27
4.105141023821826 10.671982972638901 0.599246698981707 25
4.105792846774604 10.568948896774886 0.594222447182384 25
4.110552359983545 10.472748790412007 0.589616883033005 27
4.110273416177362 10.365505516744616 0.584383287408711 27
4.107810931607159 10.254684852479539 0.578940347959445 27
4.110618574795379 10.158820329578285 0.574334783810066 27
4.109784956438591 10.055666916220558 0.569310532010743 27
4.114378225518538 9.967413459436729 0.565123655511307 27
4.109183786281489 9.857129506434905 0.559680716062041 30
4.107765698392435 9.762447876574791 0.555075151912662 29
4.108358345937035 9.664613089036211 0.550364915850797 33
4.108886976644728 9.577517077118141 0.546178039351362 31
4.110539836891105 9.489807365206190 0.541991162851926 33
4.111670635115183 9.397826358584220 0.537594942527519 35
4.110547449372696 9.311054693296125 0.533408066028084 33
4.116195207827745 9.236447470886141 0.529953892916049 36
4.118095089876153 9.154629188467746 0.526081032154071 33
4.118716107227836 9.075448579645034 0.522312843304579 35
4.115437266043168 8.984751219755834 0.517916622980172 37
4.118158439917457 8.904347165930671 0.514148434130680 35
4.123029313968395 8.833812924367095 0.510903604843618 39
4.124905197680469 8.757933226785459 0.507344759819098 39
4.128016581248871 8.685756609773463 0.503995258619549 41
4.125492977765698 8.602860336199038 0.500017725945085 39
4.127660730065784 8.530875545452584 0.496668224745537 41
4.128500374441836 8.457186326285171 0.493214051633503 37
4.127111364486980 8.380012414018299 0.489550534696497 39
4.134121021456727 8.320838594506773 0.486933736884349 46
4.128239327156355 8.236720855745794 0.482851532297400 42
4.129931453092611 8.168788110211086 0.479711374922823 44
4.132107308432575 8.102723819062632 0.476675889460732 50
4.131979929615402 8.039963399438173 0.473745075911128 46
4.131526181785946 7.970521998410388 0.470500246624065 42
4.127862369936055 7.895872464923565 0.466941401599545 44
4.129752167850609 7.829459389581498 0.463905916137454 50
4.133707052162876 7.777646723368344 0.461603134062765 48
4.129695452264496 7.705078260545164 0.458148960950730 42
4.137394531344683 7.648760041394270 0.455741506963555 48
4.135009906889167 7.584144666870798 0.452706021501464 55
4.130668339672639 7.513657816622224 0.449356520301916 44
4.134600055065146 7.459015948285382 0.446949066314740 53
4.140149665536656 7.407925575622241 0.444750956152537 57
4.143432302816742 7.353407711943274 0.442343502165361 55
4.138492816587429 7.285064828986133 0.439098672878299 46
4.143052924557840 7.234178209210158 0.436900562716095 48
4.075173401757646 7.061253249570068 0.427270746767393 53
4.139971342451033 7.116039460473017 0.431457623266829 48
4.153110650179013 7.075975877652914 0.429992216492026 51
4.153377410512871 7.020180970458564 0.427480090592365 55
4.145121698142650 6.950747826725430 0.424130589392817 53
4.148779817413657 6.902000193398729 0.422037151143099 51
4.151824534219192 6.858178216260190 0.420153056718353 48
4.151811995210441 6.804430157465463 0.417745602731178 47
4.149382627566914 6.747363624807277 0.415128804919030 51
4.147657939362369 6.692095119933617 0.412616679019369 56
4.154062994967397 6.650473018162639 0.410941928419595 56
4.092132411105475 6.500711899024484 0.402568175420724 61
4.134057230200219 6.516745597216921 0.404452269845470 59
4.155762399495751 6.498184556912777 0.404242926020498 54
4.150204213776662 6.444795834484186 0.401730800120837 54
4.155280257237885 6.403462902293621 0.400056049521063 54
4.154653312983713 6.353815303343541 0.397857939358859 49
4.160320367857653 6.316651280298791 0.396392532584057 49
4.156943162158137 6.263815395142942 0.393985078596881 54
4.154358292137837 6.212740792849537 0.391682296522192 57
4.157008270615179 6.167661112583813 0.389798202097446 57
4.161681358149384 6.128328581059058 0.388228123410157 52
4.162747279817967 6.084093800693366 0.386344028985411 50
4.156753998434915 6.030060137898205 0.383831903085750 52
4.152713125529776 5.979423820643025 0.381529121011061 55
4.159819795072019 5.945254214399897 0.380273058061230 52
4.160985108621576 5.902945831843488 0.378493635548970 52
4.161905978990350 5.860702093072169 0.376714213036710 52
4.156772455666932 5.810402295209315 0.374411430962020 55
4.158345276227592 5.769932055994091 0.372736680362246 55
4.162205724511533 5.735097158195967 0.371375945499929 60
4.157445873950980 5.686674558216192 0.369177835337726 55
4.159505203514738 5.648004691852181 0.367607756650437 49
4.157775513206074 5.604577859631553 0.365723662225691 55
4.156989158055852 5.562832168076393 0.363944239713431 57
4.161967998250205 5.529139143481295 0.362688176763601 57
4.158564658135261 5.486656212874648 0.360804082338855 60
4.167736022439221 5.457091877817079 0.359862035126482 63
4.160241703941176 5.409992743208421 0.357663924964278 57
4.159532243215907 5.370173854297692 0.355989174364504 55
4.162914312796852 5.332122778268062 0.354523767589701 57
4.163293182984224 5.296305850909272 0.353058360814899 63
4.168438474975513 5.266809706497710 0.352011641690040 63
4.160653533685803 5.219429917700579 0.349813531527837 66
4.162592154772348 5.184628357126833 0.348452796665520 63
4.165594541879891 5.151430145188579 0.347196733715689 60
4.166786278264080 5.114449917717629 0.345731326940887 57
4.169410698562785 5.081345807874966 0.344475263991056 60
4.162948900990075 5.037508853259749 0.342486497653824 66
4.166453452147656 5.006060324854066 0.341335106616480 63
4.169789347070372 4.974648916326982 0.340183715579135 69
4.166515151847649 4.935644554670906 0.338508964979361 69
4.175956381951377 4.911940631849465 0.337880933504445 69
4.168396373383882 4.868508203381793 0.335892167167213 60
4.164497108549716 4.829726550369497 0.334217416567439 63
4.176092507149188 4.809128172580293 0.333798728917496 60
4.171817471495126 4.770466292466012 0.332123978317722 63
4.179203904757797 4.745382866045398 0.331391274930320 69
4.174538913853109 4.706857961560927 0.329716524330546 69
4.170986607816648 4.669913342624880 0.328146445643258 66
4.166945126435742 4.635990920193571 0.326681038868455 65
4.173184359841789 4.608843044158053 0.325843663568568 65
4.177681136832594 4.583170434485164 0.325006288268681 62
4.169342898026536 4.542075279706531 0.323122193843935 65
4.171046465565569 4.510633013694758 0.321970802806590 71
4.166929399205391 4.476310051052351 0.320505396031788 71
4.174333569767738 4.452994691211105 0.319877364556873 71
4.176141741859915 4.423872870170281 0.318830645432014 75
4.168165032448342 4.384659939416054 0.317051222919754 68
4.169633650759925 4.355656135650724 0.316004503794895 68
4.171705828118655 4.325967646378852 0.314957784670036 65
4.174258083495709 4.298483868644809 0.314015737457663 65
4.173876625028345 4.268179215986716 0.312864346420318 65
4.171933261386140 4.236506714288621 0.311608283470488 68
4.172632539360952 4.207736351795033 0.310561564345629 68
nan nan nan 0
2.629908909801395 2.615261592512093 0.194375741486293 21
2.631916248652492 2.599048694061241 0.193852381923864 22
2.626712475958642 2.575861709221956 0.192805662799005 35
2.621379070725766 2.552742892475052 0.191758943674146 31
2.624530880003976 2.538023358113583 0.191340256024203 32
2.624730784966874 2.520546201491780 0.190712224549287 31
2.632636348854462 2.512287941717213 0.190712224549287 30
2.621093751458257 2.483849670980253 0.189246817774485 31
2.628293529570165 2.473316472083248 0.189142145861999 33
2.634422006715408 2.460939878755269 0.188932802037027 32
2.622071917924192 2.433170531004136 0.187467395262225 27
2.629080533447747 2.422649532752328 0.187362723349739 28
2.626152642459194 2.402212853399855 0.186525348049852 30
2.629669708967397 2.389461563084405 0.186211332312394 35
2.632063055803216 2.374915822395642 0.185792644662451 35
2.640337023650845 2.365713738965036 0.185792644662451 35
2.639625877335531 2.348517254295513 0.185164613187535 35
2.631343047087399 2.324742760526142 0.184013222150191 38
2.631934937593409 2.308957763711302 0.183489862587761 36
2.633954759374827 2.294508938852404 0.183071174937818 32
2.638926947763075 2.282687476439103 0.182861831112846 32
2.645363837224059 2.272160643411512 0.182757159200360 33
2.636563079639628 2.248656148025109 0.181605768163015 31
2.632203109812715 2.229113181701178 0.180768392863128 32
2.639968130613005 2.219911497670428 0.180768392863128 32
2.644634741056708 2.208122622547569 0.180559049038156 31
2.652326415394230 2.198877671907292 0.180559049038156 32
2.641481523122906 2.174373887393818 0.179302986088326 31
2.639776758670483 2.157556470866302 0.178674954613410 31
2.650393643255198 2.150845866993878 0.178884298438382 31
2.651664435687572 2.136568685129411 0.178465610788438 31
2.655987111072329 2.124804266069209 0.178256266963467 31
2.645817670116614 2.102317463995837 0.177104875926122 34
2.645663949717835 2.086422112910550 0.176581516363692 32
2.652205571500474 2.078100232082308 0.176581516363692 33
2.656290469846094 2.066376973487362 0.176372172538721 31
2.660684442927375 2.054186202111146 0.176162828713749 32
2.650047219325159 2.031983447774472 0.175011437676404 34
2.650767264199058 2.017881632477197 0.174592750026461 34
2.657794836193927 2.008616434349548 0.174592750026461 34
2.658399640047352 1.994532213274925 0.174174062376517 33
2.662142120402228 1.982854409047626 0.173964718551545 34
2.648512045049807 1.957650584767541 0.172603983689229 32
2.650498585825682 1.944848943614705 0.172289967951771 34
2.656933363993444 1.936048880127168 0.172289967951771 34
2.655583890216538 1.920909793370011 0.171766608389342 32
2.663895285900225 1.912793289607106 0.171871280301828 33
2.652665503235376 1.890731193838651 0.170719889264483 33
2.660879666779234 1.882613706584419 0.170824561176969 33
2.662531630819837 1.869870441709205 0.170510545439511 33
2.665765566552791 1.858280776661622 0.170301201614539 32
2.668951073360126 1.846691346144105 0.170091857789567 32
2.658917086071852 1.826056863980145 0.169045138664709 32
2.658673714668800 1.812264660293129 0.168626451014765 32
2.669946226648261 1.806330608028401 0.168940466752223 33
2.671260815988091 1.793659603432268 0.168626451014765 33
2.673870475474042 1.782575765120249 0.168417107189793 32
2.668724887377855 1.765051108668384 0.167684403802392 33
2.672281012356353 1.756028252750910 0.167579731889906 36
2.670029659838156 1.741234557447481 0.167056372327477 34
2.679747546231475 1.733606434190412 0.167265716152448 36
2.675398498005209 1.718234779917105 0.166637684677533 36
2.668499039525962 1.699366685991960 0.165800309377646 34
2.671037892633407 1.687907642095331 0.165590965552674 34
2.676913516956157 1.678573696584320 0.165590965552674 36
2.674277521012346 1.663943636683861 0.165067605990245 36
2.679780652869186 1.655066263918350 0.165067605990245 37
2.675323926317134 1.639440610576757 0.164439574515330 36
2.674204040423719 1.625941542262006 0.164020886865386 36
2.676442969001854 1.614533620599850 0.163811543040414 37
2.678634881432687 1.603129905024532 0.163602199215442 36
2.684214529944096 1.593769957568803 0.163602199215442 37
2.679711518200875 1.577840803082124 0.162974167740527 37
2.674855282074971 1.562433023202995 0.162346136265612 38
2.678293857908926 1.552552645784314 0.162241464353126 36
2.688891213098841 1.546181024334590 0.162555480090584 36
2.683862717412552 1.530848266637725 0.161927448615668 37
2.678760069226377 1.515569526464671 0.161299417140753 37
2.682554997685209 1.504764080680060 0.161194745228267 36
2.679064666505068 1.490535883000577 0.160671385665838 36
2.683475376519888 1.482580388862495 0.160671385665838 36
2.681884398086210 1.468897255794425 0.160252698015894 37
2.680229260170936 1.455245753147521 0.159834010365950 36
2.681775604185218 1.443987387281720 0.159624666540979 36
2.687050069563346 1.434148489345263 0.159624666540979 37
2.688260885183012 1.423360870643282 0.159415322716007 36
2.687415123061778 1.412121358260885 0.159101306978549 36
2.687014168615369 1.399963375878303 0.158787291241092 36
2.683495826790232 1.385055477419233 0.158263931678662 34
2.690092209475556 1.376589731879295 0.158368603591148 36
2.692861361526472 1.366757555504049 0.158263931678662 33
2.697615829888923 1.357349388426690 0.158263931678662 34
2.691848150109486 1.342105979317242 0.157635900203747 34
2.685773480662812 1.327391931467717 0.157007868728831 36
2.688596986815447 1.317130073043551 0.156903196816346 32
2.700364848646306 1.311226719092999 0.157321884466289 36
2.710096784790278 1.304864107881105 0.157635900203747 34
2.691201994587818 1.284214116502407 0.156275165341430 32
2.692279424195361 1.272634653546997 0.156065821516459 33
2.700322656856031 1.264923563527652 0.156275165341430 33
2.702690992173380 1.255120782158844 0.156170493428944 31
2.708870096095916 1.246513888881633 0.156275165341430 33
2.702301035302934 1.232079171287231 0.155647133866515 34
2.699304670928123 1.219350000201258 0.155228446216571 33
2.706767523251782 1.212496873602740 0.155437790041543 34
2.700239048988234 1.197709070255235 0.154809758566628 34
2.707852738215209 1.190355672072049 0.155019102391600 33
2.702835411245952 1.176909429464557 0.154495742829170 36
2.698163296086958 1.162571001203938 0.153972383266741 33
2.705677381414554 1.155185657257179 0.154181727091713 33
2.702135483477070 1.143094377834031 0.153763039441769 33
2.707951308898279 1.134426919655340 0.153867711354255 35
2.699176283566667 1.119139428117081 0.153135007966854 33
2.695675889524268 1.106676657450770 0.152716320316910 34
2.703414728980776 1.098292558645719 0.152925664141882 34
2.703526016675223 1.087358635717336 0.152716320316910 33
2.710827884076283 1.079865697279650 0.152925664141882 34
2.699716569130358 1.064535391032220 0.152088288841995 34
2.701739450810776 1.053907453298301 0.151983616929509 34
2.703538590042746 1.043750869800930 0.151878945017023 33
2.712581726293581 1.036919322259414 0.152192960754481 35
2.712448569163207 1.026031061824883 0.151983616929509 34
2.712449632167454 1.014682986443664 0.151774273104537 35
2.712228839168910 1.003822093895600 0.151564929279565 35
2.713667345628484 0.994135467483158 0.151460257367079 33
2.707732185559251 0.981254535871112 0.150936897804650 34
2.714901157573264 0.973144654328734 0.151146241629622 36
2.697574395491209 0.956321036883557 0.149994850592277 34
2.706219110803043 0.949825967757808 0.150308866329735 34
2.707795254520383 0.939246272058803 0.150204194417249 33
2.709168100470078 0.929140644218727 0.150099522504763 34
2.718069367716502 0.921602235128948 0.150413538242221 33
2.706120072963741 0.907030937830771 0.149576162942333 32
2.709113016778158 0.898052133120677 0.149576162942333 34
2.712386345801746 0.888116705499732 0.149576162942333 33
2.711669409108591 0.877413567852371 0.149366819117362 33
2.722173257238726 0.870850767661583 0.149785506767305 33
2.715674508910401 0.858333718938060 0.149262147204876 35
2.713082438332881 0.846589709919791 0.148948131467418 33
2.712203741856470 0.835937578836133 0.148738787642446 33
2.722747986240622 0.828791560639369 0.149157475292390 33
2.719886264086921 0.817557542304522 0.148843459554932 43
2.709320503046103 0.804080602726800 0.148110756167531 14
nan nan nan 0
2.718705244027101 0.786256283941665 0.148320099992503 11
2.719512667561180 0.776213268279618 0.148215428080017 10
2.737585281897733 0.771047395522154 0.149052803379904 3
nan nan nan 0
4.210661919143465 1.154276788692194 0.228812800694150 60
4.203097286586630 1.136443975999028 0.228184769219235 50
4.218617615000430 1.124852932896820 0.228812800694150 56
4.226381620533506 1.111136019997751 0.229022144519122 55
4.210710121608671 1.092100488599193 0.227975425394263 58
4.210814353690930 1.075671460454819 0.227766081569292 58
4.218231747355662 1.062677811482436 0.227975425394263 58
4.225792359975665 1.048909262742812 0.228184769219235 58
4.225367390079046 1.033940822423071 0.227975425394263 58
4.217123316973931 1.017113608164240 0.227347393919348 56
4.209337441246056 0.998148604375569 0.226719362444433 58
4.220575848675886 0.985265350945186 0.227138050094376 58
4.219757553012525 0.971105326967493 0.226928706269404 60
4.227017503656344 0.957251967865413 0.227138050094376 58
4.215065007580196 0.937545191689724 0.226300674794489 58
4.214409740171043 0.921972478988323 0.226091330969517 58
4.225254020201191 0.909673389870608 0.226510018619461 58
4.216679776413483 0.892437667890126 0.225881987144546 60
4.225635498113862 0.878933447628556 0.226196002882003 61
4.216936912742800 0.861778489069272 0.225567971407088 60
4.219919390022531 0.847053382017433 0.225567971407088 61
4.218931330170125 0.831545501030012 0.225358627582116 60
4.221808262476696 0.816813616351866 0.225358627582116 60
4.222671545414710 0.801699242234976 0.225253955669630 60
4.215626790004384 0.785126057758014 0.224730596107201 60
4.210482664643572 0.768970674642559 0.224311908457257 60
4.219039226025839 0.755324568271785 0.224625924194715 60
4.223617315093604 0.740937875138527 0.224730596107201 63
4.226051130748980 0.726927781467032 0.224730596107201 60
4.214900012574017 0.709114114977722 0.223997892719800 56
4.209224514012806 0.694568448530447 0.223579205069856 60
4.215566833885917 0.680507865071824 0.223788548894828 60
4.227897140447724 0.666607783871613 0.224311908457257 61
4.226136629478276 0.651974868769668 0.224102564632285 60
4.228386699406065 0.637218926909038 0.224102564632285 61
4.214777362684210 0.620129372177376 0.223265189332398 57
4.218998978557727 0.604960762377442 0.223369861244884 58
4.225041013024588 0.590783189774812 0.223579205069856 60
4.227278306180247 0.574555881667049 0.223579205069856 60
4.219358177657774 0.558486041381024 0.223055845507427 58
4.217225288744402 0.543980055390438 0.222846501682455 55
4.223061896272242 0.529753065152499 0.223055845507427 57
4.228760483412114 0.516230015753163 0.223265189332398 55
4.234503447351244 0.501935939538626 0.223474533157370 61
4.220356272348118 0.485326313312025 0.222637157857483 57
4.222024665475868 0.470591563943220 0.222637157857483 57
4.223800479288362 0.454376723770655 0.222637157857483 55
4.233306958844544 0.440456901391420 0.223055845507427 57
4.230695452333943 0.426754526969292 0.222846501682455 54
4.224207878658447 0.411210001610632 0.222427814032511 58
4.225617534112562 0.396462259168743 0.222427814032511 57
4.226975701750548 0.381709685959342 0.222427814032511 57
4.232197754871341 0.368036492216638 0.222637157857483 57
4.237498990378337 0.352853713641305 0.222846501682455 54
4.220727612988869 0.337367499975357 0.221904454470082 25
4.243785509912808 0.324306391609947 0.223055845507427 49
4.388369432942802 0.319181682760751 0.230592223206410 14
3.315464293238615 0.230095450313633 0.174174062376517 2
3.324219025567582 0.219046209035242 0.174592750026461 3
nan nan nan 0
nan nan nan 0
3.402110274165346 0.188420637284531 0.178570282700924 1
3.322994243649566 0.171824574241902 0.174383406201489 6
3.333548489744784 0.160704977552901 0.174906765763918 4
3.371999195814398 0.150762708086928 0.176895532101150 1
4.549888284321838 0.187514911289068 0.238651960467824 5
4.574435010868809 0.173333411774856 0.239908023417655 7
3.233647358268049 0.111226286349324 0.169568498227138 1
4.559563171842161 0.140900344886781 0.239070648117767 1
3.334170520918051 0.091384711118463 0.174802093851432 1
3.450277112523079 0.082515339410795 0.180873064775614 2
3.210923004780728 0.065577294095772 0.168312435277307 1
3.207138404504196 0.054301058907277 0.168103091452336 1
nan nan nan 0
4.557519658003898 0.045341418367503 0.238861304292796 5
4.557650163120707 0.029432429687947 0.238861304292796 5
3.135681265098921 0.009851065635162 0.164334902602844 1
3.187625037983798 -0.001669036719481 0.167056372327477 1
3.247519307001769 -0.012469640256475 0.170196529702053 2
3.247455994835410 -0.023805522152112 0.170196529702053 2
3.219386994028481 -0.035400435533626 0.168731122927251 1
4.557278435069769 -0.065226854589063 0.238861304292796 5
3.167150944944495 -0.056388713238900 0.166009653202618 1
3.134985915188927 -0.066763398307430 0.164334902602844 1
4.576311972183015 -0.113441057621292 0.239908023417655 5
nan nan nan 0
3.185999711740583 -0.101793935250129 0.167056372327477 1
4.590812933026698 -0.162721439740265 0.240745398717542 7
3.133343259687003 -0.121466278285528 0.164334902602844 1
3.132900173851406 -0.132402947355202 0.164334902602844 1
4.580913266215315 -0.209620417326095 0.240326711067598 7
4.580153645917666 -0.225609511622509 0.240326711067598 5
3.131341899866028 -0.165202741895911 0.164334902602844 1
4.618349108733528 -0.259822980248468 0.242420149317316 3
3.126124863766681 -0.186821136640380 0.164125558777872 2
3.141399883179617 -0.198741048451354 0.164962934077759 1
3.112787505087643 -0.207842504642497 0.163497527302957 1
3.100088964630262 -0.217866791196801 0.162869495828041 1
3.087318709092358 -0.228343810366850 0.162241464353126 2
3.046676988459064 -0.236033763960139 0.160148026103408 6
3.031984849323610 -0.244480323043467 0.159415322716007 19
nan nan nan 0
nan nan nan 0
3.017324413365130 -0.275129025460950 0.158787291241092 100
3.014307418860374 -0.285997571539211 0.158682619328606 100
3.025268600477249 -0.297163274155780 0.159310650803521 68
3.030173873886870 -0.308328169074962 0.159624666540979 43
nan nan nan 0
nan nan nan 0
3.382053366877605 -0.379955785684525 0.178360938875953 2
nan nan nan 0
4.612752698790234 -0.551670575411069 0.243466868442175 69
4.610798906647468 -0.567768726181245 0.243466868442175 58
4.624640314057392 -0.585868075666155 0.244304243742062 72
4.610683872082660 -0.600459936458693 0.243676212267146 67
4.600641298287082 -0.615491203196651 0.243257524617203 67
4.614294287341857 -0.633720687400033 0.244094899917090 67
4.616009526933769 -0.650381029663614 0.244304243742062 74
4.621618111147312 -0.667632175352607 0.244722931392005 72
4.607405096429916 -0.682005833718526 0.244094899917090 63
4.604996381912710 -0.698084523825959 0.244094899917090 67
4.614373404884565 -0.715992155784493 0.244722931392005 74
4.613818573824555 -0.732408091497984 0.244827603304491 72
4.617148249340771 -0.749468898769624 0.245141619041949 72
4.606756001325642 -0.763469600639798 0.244722931392005 72
4.607865148946157 -0.781016612937547 0.244932275216977 72
4.605527546881564 -0.794684966179747 0.244932275216977 74
4.612560403820077 -0.812488801440495 0.245455634779407 76
4.619234835109660 -0.831963864871551 0.245978994341836 70
4.608592757229975 -0.845835051168255 0.245560306691892 74
4.603648988246557 -0.861549490378526 0.245455634779407 74
4.608461100775156 -0.879110971500266 0.245874322429350 74
4.613206609676335 -0.896716526905052 0.246293010079294 74
4.617885265952501 -0.914365905260230 0.246711697729237 74
4.604713997117631 -0.929309586144268 0.246188338166808 72
4.605354838659103 -0.946181268229437 0.246397681991780 72
4.613753875011505 -0.964703829007943 0.247025713466695 70
4.618172488304907 -0.982465336090636 0.247444401116638 72
4.622697734603268 -0.999462627475832 0.247863088766582 72
4.615279460779994 -1.014735000637468 0.247653744941610 72
4.603732941011601 -1.029899914695916 0.247235057291667 72
4.611795163700227 -1.048620645084904 0.247863088766582 72
4.612184594012749 -1.064806714356912 0.248072432591554 72
4.616217583116044 -1.082724059255821 0.248491120241497 72
4.608524276378366 -1.097905348165632 0.248281776416526 70
4.604663794814038 -1.113985411137969 0.248281776416526 72
4.616066094089859 -1.134668878238086 0.249119151716413 70
4.619828628225735 -1.152709118793762 0.249537839366356 70
4.616184493761542 -1.167217026212287 0.249537839366356 70
4.611875423480988 -1.184128348202347 0.249537839366356 70
4.608132622006330 -1.198611114884818 0.249537839366356 70
4.607782963609449 -1.215708231755680 0.249747183191328 68
4.612511254969855 -1.236781540210780 0.250270542753757 68
4.619948906108364 -1.255212336777388 0.250898574228673 68
4.603985961338986 -1.268149014596970 0.250270542753757 68
4.609149671988206 -1.286897711464291 0.250793902316187 68
4.610849989991921 -1.303000837790315 0.251107918053644 68
4.613953900160915 -1.321287165537118 0.251526605703588 70
4.616284184567633 -1.342028277074570 0.251945293353532 70
4.609655607593722 -1.357569696469372 0.251840621441046 72
4.611110289938951 -1.373755412352761 0.252154637178503 70
4.619671706611024 -1.393881385240181 0.252887340565905 72
4.622171799889809 -1.413139734199314 0.253306028215848 72
4.624842615314980 -1.431627937742666 0.253724715865792 76
4.612445859584195 -1.444568879795673 0.253306028215848 74
4.607375272580948 -1.460660519655112 0.253306028215848 74
4.617462590944711 -1.481616128312456 0.254143403515735 76
4.619861110120580 -1.500192475963267 0.254562091165679 74
4.621920960295538 -1.519610291889123 0.254980778815622 76
4.601427162394638 -1.530691085629712 0.254143403515735 74
4.607684208881706 -1.549761835616998 0.254771434990651 74
4.613591355724328 -1.569696121838512 0.255399466465566 76
4.615638222200688 -1.588390655281315 0.255818154115509 74
4.621102462692998 -1.609238137501356 0.256446185590425 72
4.604436773733691 -1.620574919191892 0.255818154115509 76
4.610041757976830 -1.640655461578090 0.256446185590425 72
4.612093475608861 -1.658637455606677 0.256864873240368 74
4.617830878885539 -1.678015309236628 0.257492904715284 78
4.622897554171786 -1.699063208339471 0.258120936190199 76
4.613194076793458 -1.713798710572915 0.257911592365227 74
4.607183697741993 -1.729891321957552 0.257911592365227 74
4.612321200722175 -1.750214388088885 0.258539623840143 78
4.617063725449459 -1.771400203674274 0.259167655315058 78
4.622025565272126 -1.791837569395234 0.259795686789973 78
4.612023352292016 -1.806503675185624 0.259586342965001 78
4.609403645285838 -1.824061467152618 0.259795686789973 78
4.620021665223971 -1.846006404899088 0.260737734002346 74
4.617253928433473 -1.863617123482996 0.260947077827318 74
4.621488427647287 -1.885053626641886 0.261575109302233 76
4.611186825330571 -1.899652599433446 0.261365765477261 76
4.612238627581873 -1.918000975584362 0.261784453127205 74
4.620247212180639 -1.940275617939533 0.262621828427092 74
4.617123756147889 -1.957950968565714 0.262831172252064 74
4.624949310146686 -1.980345115278025 0.263668547551951 74
4.610327388913955 -1.994111551115285 0.263249859902007 74
4.606999259516503 -2.011791010713073 0.263459203726979 74
4.617106806753130 -2.033499622211823 0.264401250939352 78
4.620571868276968 -2.055278834988203 0.265029282414268 78
4.625026096259363 -2.074689326259973 0.265657313889183 83
4.617755901784797 -2.090821040430973 0.265657313889183 80
4.609693704181122 -2.108536493687058 0.265657313889183 80
4.624438261944399 -2.133852855922605 0.266913376839014 83
4.620582698107706 -2.151668418240316 0.267122720663985 80
4.627504775952329 -2.174579714682681 0.267960095963872 83
4.620268166162083 -2.189913116934163 0.267960095963872 83
4.619802975515513 -2.209474438848294 0.268378783613816 83
4.622076006522969 -2.232408726770368 0.269006815088731 83
4.625027867008338 -2.253778666798251 0.269634846563647 80
4.630076269814924 -2.275269461762757 0.270367549951048 78
4.618527022890497 -2.289643352684645 0.270158206126076 80
4.619438166753284 -2.310217849801068 0.270681565688505 80
4.622045036673907 -2.331726137745409 0.271309597163421 80
4.628117997520494 -2.355092318021938 0.272146972463308 76
4.626976485870687 -2.374881167580134 0.272565660113251 77
4.620432092784496 -2.391936070634007 0.272670332025737 80
4.620906840455843 -2.412671792578679 0.273193691588167 77
4.623060241280065 -2.434370487307606 0.273821723063082 77
4.625118332038477 -2.456113545192005 0.274449754537997 77
4.625320144248085 -2.476957680247037 0.274973114100427 85
4.616645769382933 -2.493087970080594 0.274973114100427 82
4.615369913850587 -2.512203000127877 0.275391801750370 82
4.620136949209215 -2.536792465358157 0.276229177050258 82
4.622184345429357 -2.557901867342733 0.276857208525173 82
4.627180492590772 -2.581806035917812 0.277694583825060 80
4.621167726178099 -2.600707260251840 0.277903927650032 80
4.615992651244039 -2.617987939599895 0.278113271475003 82
4.624625889653537 -2.643191457385279 0.279159990599862 82
4.625754542261078 -2.665301029425097 0.279788022074778 86
4.630239177863913 -2.689456923269534 0.280625397374665 86
4.627717190556890 -2.709639796448399 0.281044085024608 86
4.621194449118662 -2.728614002052181 0.281253428849580 86
4.625371886838886 -2.752900231874519 0.282090804149467 86
4.615734292400144 -2.769029021186964 0.282090804149467 100
4.618004198141647 -2.792358159250111 0.282823507536868 57
4.567297199710738 -2.783515370684899 0.280311381637207 49
4.523516101324625 -2.778534300136333 0.278217943387489 47
4.496807745467488 -2.783794570859056 0.277171224262631 47
4.459950929213963 -2.782559146182312 0.275496473662856 45
3.809393982956843 -2.395190945579293 0.235825818830705 15
nan nan nan 0
3.752597494336732 -2.395274674476512 0.233313692931044 33
3.734134926517586 -2.401876294382004 0.232685661456128 29
3.705196911470268 -2.402507063083562 0.231429598506298 29
3.686756034254036 -2.408871225397346 0.230801567031382 29
3.647467561132265 -2.399585191804272 0.228812800694150 30
3.622002908456524 -2.401899569761202 0.227766081569292 30
3.596990045600983 -2.403431909278943 0.226719362444433 30
3.576981150782847 -2.408165251155424 0.225986659057031 14
2.943418656797332 -1.997342720297616 0.186420676137366 25
2.903800055892065 -1.984553527817769 0.184327237887648 22
2.880404923693518 -1.983350631382203 0.183280518762789 21
2.863617938800264 -1.986562450432626 0.182652487287874 19
2.850117863892955 -1.991969629333686 0.182233799637930 20
2.833348903655009 -1.995007101522919 0.181605768163015 19
2.808100690266884 -1.992664229392106 0.180454377125670 18
2.786504828733861 -1.992000542884458 0.179512329913297 19
2.781504719234283 -2.002396871135322 0.179617001825783 18
2.756712859627943 -1.999195897186626 0.178465610788438 19
2.740390470676202 -2.001259069588686 0.177837579313523 19
2.720517503832971 -2.001344407921224 0.177000204013636 19
2.699978733414039 -2.002258099469569 0.176162828713749 19
2.683372482041806 -2.004498854471890 0.175534797238834 19
2.670326048871814 -2.008583864537176 0.175116109588890 19
2.650563076019276 -2.008243586524767 0.174278734289003 19
2.624484331729853 -2.002943121435845 0.173022671339172 19
2.614309825195754 -2.009657605593155 0.172813327514201 21
2.597452511120171 -2.011887838897433 0.172185296039285 19
2.584115008664881 -2.016028237459814 0.171766608389342 20
2.568695560971629 -2.016287356141568 0.171138576914426 19
2.547189410573902 -2.014537973813737 0.170196529702053 20
2.532330828119518 -2.017194981227716 0.169673170139624 19
2.512811279598482 -2.016023300337442 0.168835794839737 19
2.502651781690306 -2.022271786783493 0.168626451014765 19
2.489734702451285 -2.025518022569440 0.168207763364821 20
2.466847326249342 -2.021968707538541 0.167161044239963 19
2.450532828002644 -2.022938361527795 0.166533012765047 19
2.434594916614911 -2.023393962918729 0.165904981290132 19
2.427517121229319 -2.031879957901461 0.165904981290132 19
2.410892517536265 -2.033038317087857 0.165276949815217 19
2.393124793362334 -2.032391427447477 0.164544246427815 20
2.366284160429526 -2.023856322383949 0.163183511565499 19
2.359205167280716 -2.032103865512076 0.163183511565499 19
2.349435595740854 -2.037299143993120 0.162974167740527 19
2.333283539104221 -2.037605373516890 0.162346136265612 20
2.310804185205594 -2.032951183788328 0.161299417140753 19
2.291734308529978 -2.030409267176173 0.160462041840866 19
2.286123197472388 -2.039726220945613 0.160566713753352 20
2.277503644975906 -2.046358981276189 0.160462041840866 19
2.264780284893183 -2.048541038382798 0.160043354190922 19
2.242850435412989 -2.042984580070403 0.158996635066063 19
2.220987152794619 -2.037300147542187 0.157949915941204 19
2.222664749810103 -2.053171801030027 0.158577947416120 19
2.203785374518125 -2.050035105789276 0.157740572116233 19
2.184597856632078 -2.047173073198097 0.156903196816346 17
2.172343412707002 -2.048545019192756 0.156484509166402 17
2.156489738180242 -2.047863464072964 0.155856477691487 17
2.143196538674638 -2.050231130882577 0.155437790041543 17
2.136385943217894 -2.057326953852496 0.155437790041543 17
2.123456320376874 -2.059210123650622 0.155019102391600 17
2.096250283640638 -2.047074012071612 0.153553695616797 17
2.083395662028227 -2.048777241375196 0.153135007966854 17
2.077650562311970 -2.057442524454871 0.153239679879340 18
2.066213352004896 -2.060451437244629 0.152925664141882 17
2.059008446200659 -2.067651314830697 0.152925664141882 17
2.034566880172210 -2.058139437011148 0.151669601192051 17
2.018975329740030 -2.056677189575097 0.151041569717136 17
2.018754724445858 -2.070862968605119 0.151564929279565 18
2.001789595996904 -2.067852038466720 0.150832225892164 17
1.992152543696655 -2.071599621075636 0.150622882067192 17
1.972494871286820 -2.065541001874414 0.149680834854819 17
1.958401187437844 -2.065167508122875 0.149157475292390 17
1.945703478474506 -2.066174907141906 0.148738787642446 17
1.941207659434308 -2.075871690901424 0.148948131467418 17
1.933949688477278 -2.082635123244349 0.148948131467418 17
1.907712879488153 -2.068817153677981 0.147482724692616 17
1.897782108371213 -2.072517700873488 0.147273380867644 17
1.888211112357143 -2.075844638738582 0.147064037042672 17
1.880590078664729 -2.082751335382238 0.147064037042672 17
1.864338060170750 -2.078568434810227 0.146331333655271 16
1.849100881715496 -2.076114755251433 0.145703302180356 16
1.841479120692424 -2.082878103919573 0.145703302180356 16
1.834561922916506 -2.088973216371774 0.145703302180356 16
1.820110909601912 -2.085697351625552 0.145075270705440 16
1.812819378451211 -2.092038017566007 0.145075270705440 16
1.792479021592945 -2.083213559258580 0.144028551580581 17
1.781304185679697 -2.084902283145996 0.143714535843124 17
1.771994083103080 -2.090203142383415 0.143609863930638 16
1.764687116951667 -2.096375821804535 0.143609863930638 16
1.752235154042171 -2.096393153006887 0.143191176280694 16
1.735978084938976 -2.091738433005551 0.142458472893293 17
1.721409607367288 -2.088236837514047 0.141830441418378 17
1.714109813078686 -2.094232956142754 0.141830441418378 18
1.705895768098381 -2.098355888461725 0.141725769505892 16
1.696051793888063 -2.101189523510809 0.141516425680920 16
1.678714592014244 -2.094629018070346 0.140679050381033 16
1.663931170209877 -2.091098939052705 0.140051018906118 15
