# This PCD file was generated using the MATLAB® pcwrite function
# from Computer Vision Toolbox®.
# .PCD v.7 - Point Cloud Data file format
VERSION .7
FIELDS x y z intensity
SIZE 8 8 8 1
TYPE F F F U
COUNT 1 1 1 1
WIDTH 894
HEIGHT 1
VIEWPOINT 0 0 0 1 0 0 0
POINTS 894
DATA ascii
-3.327822056409487 3.711523852415529 0.436127336709281 4
-3.293648089300529 3.699308602390054 0.433338352941356 6
-3.275436321671813 3.704812353575737 0.432641106999375 6
-3.251968496034836 3.704245032087974 0.431246615115413 9
-3.221998552805533 3.696049918478043 0.428980565803973 21
-3.201253464022466 3.698235816478036 0.427934696891002 27
-3.172740229575873 3.691256318632663 0.425842959065058 29
-3.149488615203027 3.690184949486155 0.424448467181095 29
-3.134012024918380 3.698116270455535 0.424099844210105 29
-3.118518470595897 3.705984545441412 0.423751221239114 27
-3.097914284557052 3.705063913762283 0.422531040840647 25
-3.064599536789165 3.691327983888182 0.419742057072722 27
-3.042824518440466 3.691241307300650 0.418521876674255 27
-3.024873378481485 3.695673094594198 0.417824630732273 27
-3.011954643399870 3.706209357828482 0.417824630732273 29
-2.988990033103396 3.704295954897144 0.416430138848311 29
-2.963584148850636 3.699157696667281 0.414687023993358 30
-2.961816247681880 3.723513341073740 0.416255827362815 38
-2.953087268130095 3.740599112638190 0.416953073304797 40
-2.958448680362305 3.774405954918652 0.419567745587226 36
-2.958154985804475 3.799917398948772 0.421310860442180 38
-2.952183176607694 3.819678688701829 0.422356729355152 36
-2.954058421630078 3.848412963846790 0.424448467181095 38
-2.950268088020713 3.871378563641294 0.425842959065058 38
-2.960778531516901 3.913431094956759 0.429329188774964 40
-2.954279363365020 3.933300745292136 0.430375057687936 38
-2.954823352612145 3.962756039126794 0.432466795513880 38
-2.955197528354089 3.992262823200825 0.434558533339824 38
-2.955401538566497 4.021820270291755 0.436650271165767 38
-2.955435034933111 4.051427551349751 0.438742008991711 38
-2.961140491503582 4.089152407746578 0.441705304245132 40
-2.953826187759014 4.109170506461878 0.442751173158103 40
-2.954509013593911 4.140540080750074 0.445017222469543 40
-2.956160248245920 4.173590097010960 0.447457583266477 40
-2.958027935389620 4.208848025082367 0.450072255548907 40
-2.964977102811091 4.250195003853098 0.453384173773318 38
-2.954659995894553 4.267070936008651 0.454081419715299 19
nan nan nan 0
nan nan nan 0
nan nan nan 0
nan nan nan 0
nan nan nan 0
nan nan nan 0
nan nan nan 0
nan nan nan 0
-3.271336048922410 5.054780959640151 0.526769309166846 3
nan nan nan 0
-5.257644226627217 8.249670585362830 0.855869393782003 3
-5.232388876306309 8.270427640387984 0.856218016752994 7
-5.220437290577933 8.315640532646862 0.859007000520919 3
-5.197699155348604 8.343959285151561 0.860052869433891 3
-5.160161349501474 8.348493554993885 0.858658377549928 3
-5.137237912348527 8.376645584035570 0.859704246462900 7
-5.124537521756642 8.421759710174252 0.862493230230825 7
-5.102175843488593 8.444638527726692 0.863190476172806 7
nan nan nan 0
nan nan nan 0
nan nan nan 0
nan nan nan 0
-6.266554545207121 10.793000537117386 1.091887145142661 3
-6.228841764612958 10.814809139956449 1.091887145142661 3
-6.155472322676634 10.774207312771964 1.085611931664830 3
-6.117825819428544 10.795628280788499 1.085611931664830 3
nan nan nan 0
nan nan nan 0
nan nan nan 0
nan nan nan 0
nan nan nan 0
nan nan nan 0
-5.793990263569812 10.828425792193586 1.074455996593130 2
-5.698258957264927 10.739465179045350 1.063648684492420 5
-5.668157995659421 10.773396306118897 1.065043176376383 2
-5.634203391938814 10.800182104506472 1.065740422318364 5
-5.642237054929139 10.908267017605025 1.074455996593130 5
-5.633219172354234 10.984627093923057 1.080033964128980 2
nan nan nan 0
nan nan nan 0
nan nan nan 0
nan nan nan 0
nan nan nan 0
nan nan nan 0
nan nan nan 0
nan nan nan 0
nan nan nan 0
nan nan nan 0
-3.376489385896684 7.254122588546347 0.700034925749190 4
-3.339464915825605 7.240535332343801 0.697594564952256 8
-3.302576586307292 7.226778294926450 0.695154204155321 8
-3.268290524334373 7.218297293574920 0.693236777814873 33
-3.239812223553564 7.222390307433280 0.692539531872892 37
-3.213415826699215 7.227632513736379 0.692016597416406 37
-3.180136456190897 7.220571628290802 0.690273482561453 37
-3.156835883268666 7.239484143118125 0.690970728503434 8
-3.118906191137471 7.221194226518017 0.688181744735509 12
-3.091023065726099 7.222338756495144 0.687310187308032 24
-3.083676715022481 7.275275903462711 0.691319351474425 4
-3.024333189910779 7.205162587879206 0.683649646112631 28
-3.000693459086500 7.219355174285727 0.683998269083621 37
-2.995948376801069 7.279531797334365 0.688704679191995 33
-2.999841576255698 7.361903716758801 0.695502827126312 28
-3.002450464952946 7.442542935972940 0.702126663575134 28
-2.997143187551564 7.504786290803339 0.707007385169003 28
-2.995832566648059 7.578199811230760 0.712933975675844 28
-3.002031697239678 7.672104325037725 0.720777992523133 28
-5.728852063606763 14.792831112265121 1.387868047513709 3
-5.702849785969534 14.879713871123300 1.394143260991540 4
-5.696093453734934 15.018755925037933 1.405299196063240 4
-5.713636405981937 15.225083690632243 1.422730344612772 4
nan nan nan 0
nan nan nan 0
nan nan nan 0
nan nan nan 0
nan nan nan 0
nan nan nan 0
nan nan nan 0
nan nan nan 0
nan nan nan 0
nan nan nan 0
nan nan nan 0
nan nan nan 0
nan nan nan 0
nan nan nan 0
-3.395343747021575 10.703479653935540 0.982419532251603 3
-3.352002887988530 10.696254223010907 0.980676417396650 6
-3.312878074748884 10.702179871957320 0.980153482940164 34
-3.270257647687826 10.696530790057531 0.978584679570706 37
-3.225989497170122 10.684992714029839 0.976492941744762 37
-3.187533853451608 10.692369718730532 0.976144318773772 34
-3.146074147188763 10.696335095185377 0.975447072831790 34
-3.105940178077405 10.697684897910337 0.974575515404314 31
-3.068030524028679 10.706546175001060 0.974401203918818 34
-3.044192853714041 10.765120561648301 0.978758991056201 21
-3.047590578411107 10.915242905245941 0.991483729497359 15
-3.050739816372309 11.075641052120231 1.005080025365994 15
-3.037134409195535 11.178511699057232 1.013446976669769 2
nan nan nan 0
nan nan nan 0
nan nan nan 0
nan nan nan 0
nan nan nan 0
nan nan nan 0
nan nan nan 0
-3.444044521584493 14.225110232600722 1.280492172448594 3
-3.393444497463194 14.233169391789296 1.280143549477603 3
-3.337114130084256 14.205552413428897 1.276657319767697 32
-3.283916225861951 14.201585226351972 1.275262827883734 31
-3.231228812253637 14.199362651022428 1.274042647485267 31
-3.177726356346000 14.193056947684846 1.272473844115809 31
-3.127735466614801 14.202117051698616 1.272299532630314 31
-3.090371681158726 14.269418495010679 1.277354565709678 14
-3.089504001113657 14.510066301706273 1.297923320998125 10
-3.180860143698432 15.199411930319890 1.358583717950496 7
-3.137669240571099 15.245003206646437 1.361721324689411 7
-3.113652772304768 15.400375620068791 1.374620374616065 11
-3.109134797666996 15.673561752314917 1.397978113672437 12
-3.095536552504126 15.895529452473806 1.416803754105931 4
nan nan nan 0
nan nan nan 0
nan nan nan 0
nan nan nan 0
-3.185843955470412 17.994349696256105 1.598784944963042 4
nan nan nan 0
nan nan nan 0
nan nan nan 0
nan nan nan 0
nan nan nan 0
-2.475454783327700 15.935271985282665 1.410877163599090 8
-2.418619366003007 15.935936526048030 1.410179917657109 8
-2.362393659041520 15.940340269901521 1.409831294686119 8
-2.308448324507755 15.960320672289509 1.410877163599090 8
-2.257181287389668 15.979724840751164 1.411923032512062 8
-2.199213676480064 15.971716389958113 1.410528540628100 8
-2.146237464270748 15.978921427400357 1.410528540628100 8
-2.091480884321247 15.994218126868173 1.411225786570081 8
-2.034351651464433 16.013635381427388 1.412271655483053 8
-1.979418005332954 16.028548507078529 1.412968901425034 8
-1.931432934193483 16.054469182495748 1.414712016279987 4
-1.886472069206307 16.156102666922031 1.423078967583763 8
-1.885654592590727 16.705696978167687 1.470840314609479 8
-1.893163437780775 17.314275245080101 1.523831006200056 9
-1.889317868565102 17.855736964724599 1.570895107283791 38
-1.827180931963563 17.864205180283747 1.571069418769286 47
-1.763245627865761 17.854612442719667 1.569674926885324 47
-1.700721772241694 17.858675126438762 1.569500615399828 14
-1.642220147665362 17.872152854730167 1.570197861341810 47
-1.578597025762904 17.863883801316948 1.568977680943342 47
-1.515388560267288 17.859359022563019 1.568106123515866 47
-1.453038531154472 17.864539910458721 1.568106123515866 28
-1.392859986460860 17.857341997524721 1.567060254602894 42
-1.329925745568913 17.854147653594996 1.566363008660913 47
-1.265463105477943 17.872814050228705 1.567583189059380 52
-1.202532519260837 17.869170881195952 1.566885943117399 47
-1.139642792898761 17.865306246169805 1.566188697175417 47
-1.077394190245244 17.871164278913799 1.566363008660913 52
-1.015005621509260 17.874816209220260 1.566363008660913 47
-0.952604685250094 17.878250340532162 1.566363008660913 52
-0.889894948789283 17.875496855811726 1.565840074204427 52
-0.827308163647597 17.874513747749251 1.565491451233436 52
-0.764739087214974 17.873311558175903 1.565142828262446 52
-0.702501369558705 17.879853812094861 1.565491451233436 52
-0.643349012071286 17.886067284640365 1.565840074204427 52
-0.580523059542695 17.876255985872028 1.564794205291455 52
-0.518119744541574 17.878173481242499 1.564794205291455 52
-0.455710116414858 17.879873136711108 1.564794205291455 57
-0.393382558403714 17.885338746858626 1.565142828262446 52
-0.330948678774091 17.886602944638661 1.565142828262446 52
-0.268271532188511 17.871711880105128 1.563748336378483 57
-0.205931881761191 17.876523956346436 1.564096959349474 57
-0.143561905017034 17.881118533229003 1.564445582320464 52
-0.081162360965497 17.885495457667613 1.564794205291455 52
-0.021853908596261 17.887658649140640 1.564968516776950 52
0.040563202602573 17.877664034441086 1.564096959349474 57
0.056683455604736 9.279092506638078 0.486305705409434 68
0.090653607878656 9.274828098171573 0.486096361584462 68
0.121461834386612 9.278470659740949 0.486305705409434 70
0.153782772554870 9.273996182127728 0.486096361584462 68
0.184535606597295 9.273435228498236 0.486096361584462 70
0.218617316234894 9.276689993199540 0.486305705409434 68
0.251159748798852 9.281859944406305 0.486619721146892 66
0.283801929488474 9.288911995124900 0.487038408796835 68
0.314197832973199 9.275943114669715 0.486410377321920 66
0.345401633437373 9.286825469447320 0.487038408796835 66
0.381139744625455 9.287426345009894 0.487143080709321 68
0.414000892817081 9.296015743520410 0.487666440271751 64
0.446447521093029 9.294513976208897 0.487666440271751 68
0.478271982296923 9.280931284052610 0.487038408796835 64
0.512835572494748 9.289087102488510 0.487561768359265 62
nan nan nan 0
nan nan nan 0
0.313291798510237 4.767160213467453 0.250375214666243 74
0.327447552809567 4.742184912928546 0.249119151716413 54
0.345010633753894 4.754957172582936 0.249851855103814 64
0.361454939898717 4.751732386289322 0.249747183191328 62
0.379623785621335 4.770351370701276 0.250793902316187 26
0.396769274917026 4.774968372248405 0.251107918053644 18
nan nan nan 0
0.428367342428172 4.762210915004372 0.250584558491215 74
0.444616198263651 4.756709439110446 0.250375214666243 58
0.463979059881679 4.774926852130832 0.251421933791102 65
nan nan nan 0
0.496469956425242 4.771658054971653 0.251421933791102 4
0.514811502253559 4.777749409349513 0.251840621441046 4
nan nan nan 0
0.546487181599431 4.774229996736615 0.251840621441046 78
0.566458103620032 4.785980352281892 0.252573324828447 36
nan nan nan 0
0.598277121031075 4.776068438310710 0.252259309090989 6
0.615455394031259 4.777912749020500 0.252468652915961 6
0.630772676887614 4.771885483859496 0.252259309090989 6
0.647963105662646 4.773612823951563 0.252468652915961 6
0.666558492718949 4.779118304537537 0.252887340565905 12
0.683802261157885 4.780716738731308 0.253096684390876 4
0.701065303663287 4.782252972822435 0.253306028215848 4
0.717754210641086 4.779776663106395 0.253306028215848 4
0.735041342565719 4.781190247298071 0.253515372040820 4
0.751415958737024 4.776622349947271 0.253410700128334 29
nan nan nan 0
0.784559330636401 4.775338682231500 0.253620043953306 36
nan nan nan 0
0.829692263572192 4.838643603021827 0.257283560890312 2
0.838311216591062 4.788501834608652 0.254771434990651 4
nan nan nan 0
0.877574067359551 4.809887985932736 0.256236841765453 89
0.892896993308700 4.798941136476381 0.255818154115509 65
0.906946686844472 4.786142107699679 0.255294794553080 63
nan nan nan 0
nan nan nan 0
nan nan nan 0
0.977237796142042 4.794709755938055 0.256446185590425 74
0.995564414101328 4.803176901207712 0.257074217065340 72
1.010687098405668 4.787770560815593 0.256446185590425 65
1.027812723274216 4.786166175906365 0.256550857502911 57
1.046233475704844 4.794439543197796 0.257178888977826 57
1.065558576668583 4.802457340930235 0.257806920452741 70
1.083153305593142 4.798519616334743 0.257806920452741 72
1.099896665942276 4.794709471492068 0.257806920452741 72
1.117986705547944 4.796676277227633 0.258120936190199 68
nan nan nan 0
1.181329746894585 4.913036782808321 0.264819938589296 2
4.029330018511339 16.503937092550689 0.890339287604960 10
4.030261658529806 16.273351493457810 0.878616033406541 15
4.034456462303493 16.049988033429621 0.867311466858065 15
4.040597257905273 15.840343148141253 0.856739603696991 16
4.044823813967099 15.628919783461560 0.846063068623430 16
4.043919622774100 15.414504764873433 0.835177189724898 15
4.043264203565546 15.195703981449117 0.824081967001394 15
4.041636899336710 14.989373508275674 0.813614775752805 15
4.041266293992709 14.782517941762949 0.803147584504216 14
4.046435763703183 14.600871217056914 0.794041128117944 17
4.055065339623669 14.426354397154217 0.785353359381615 19
4.051728750229015 14.242571531901271 0.776037559170371 20
4.052738376129573 14.059459195842610 0.766826430871613 18
4.063150164386061 13.885892905680269 0.758243334047770 20
2.427839514823815 8.196248841176580 0.447995785439599 23
2.457582838020616 8.191550204715066 0.448205129264571 12
2.473388344860737 8.140879632587477 0.445902347189881 4
2.489565691715551 8.102522354739950 0.444227596590107 6
2.538004751309946 8.158624589048957 0.447786441614627 2
2.590933980244202 8.217392745008743 0.451554630464119 2
2.619602249002566 8.208298634475179 0.451554630464119 2
4.082603997601906 12.632446583649410 0.695754202293695 19
4.088803801170084 12.502321286868128 0.689369215632056 22
4.090731681299365 12.369229918140753 0.682774885145445 22
4.093957834104500 12.235550216891582 0.676180554658834 24
4.091628731288274 12.095147172869000 0.669167536522280 22
4.091793628417570 11.957961156337591 0.662363862210697 24
4.093010784277355 11.826585126265034 0.655874203636572 22
4.094680702690447 11.699117989085101 0.649593888887419 22
4.097530683866149 11.571069697314282 0.643313574138266 24
4.102213163326368 11.457037040149412 0.637765962776513 22
4.093360947159742 11.320129452612512 0.630857616552445 24
4.095821609797212 11.204475874933136 0.625205333278207 22
4.093371588513131 11.077703591439532 0.618925018529054 24
4.098290361856069 10.967210374973408 0.613586750992273 24
4.097253991059461 10.854525422026738 0.608039139630521 25
4.098814203992724 10.744986262435376 0.602700872093741 27
4.106248348859198 10.641591329504180 0.597781292206904 25
4.109606550626147 10.546033972764077 0.593175728057525 25
4.109821442764485 10.449431184199623 0.588465491995660 26
4.112346343757866 10.349640744719252 0.583650584021310 26
4.106041256555577 10.229572330567706 0.577684285009614 29
4.105702594361946 10.126333526652830 0.572660033210291 27
4.111222374106176 10.029181457667853 0.568054469060912 27
4.114117876135137 9.937264386132462 0.563658248736505 27
4.113163522008926 9.842482915254212 0.559052684587126 27
4.110221265060900 9.739739711506866 0.554028432787803 31
4.109077512016892 9.638258425042508 0.549108852900967 33
4.112688185006398 9.554144845909386 0.545131320226503 31
4.115762069079709 9.470124348124623 0.541153787552039 33
4.118299861023596 9.386199652995279 0.537176254877575 33
4.112210354760785 9.288482190030919 0.532361346903225 33
4.114456660628808 9.206603624997840 0.528488486141247 36
4.119417506363076 9.127745732653226 0.524824969204241 33
4.124760343981386 9.055148338983070 0.521475468004692 35
4.122241359482633 8.970642473376181 0.517393263417743 39
4.119918224132142 8.883722701147876 0.513206386918307 37
4.117351847936050 8.805602902848049 0.509438198068815 39
4.124020376626137 8.736268896225756 0.506298040694239 41
4.127005779147626 8.664119462790334 0.502948539494690 39
4.129538069404992 8.592056339100056 0.499599038295142 41
4.126130627597264 8.504984940254083 0.495412161795706 41
4.126224023046581 8.433845721240123 0.492062660596158 37
4.125891288794898 8.362800040708793 0.488713159396610 39
4.127470110879885 8.292917881195606 0.485468330109547 46
4.136322121320052 8.234899915208050 0.482956204209886 46
4.132545009075735 8.156272837141865 0.479188015360394 46
4.130087593378666 8.081330172895131 0.475629170335874 50
4.132648385993378 8.017156452336319 0.472698356786269 46
4.132047886825103 7.947747709036992 0.469453527499206 42
4.138433398841875 7.892592284450468 0.467046073512031 46
4.135578729057914 7.817346363363511 0.463487228487511 48
4.132757398521364 7.746473620744680 0.460137727287962 48
4.131936137345578 7.683473276775780 0.457206913738357 48
4.134929028618205 7.625110212632516 0.454590115926210 54
4.135648679391373 7.563315629549179 0.451763974289091 51
4.131165999196635 7.492864335312997 0.448414473089543 48
4.135946483336991 7.439993753096320 0.446111691014853 48
4.139431947591825 7.385439303203285 0.443704237027678 57
4.144552393781840 7.334429343523424 0.441506126865474 53
4.152333365494632 7.288680270830426 0.439622032440728 53
4.140151959826748 7.217424377582572 0.436063187416208 48
4.082565693053827 7.056981866978034 0.427270746767393 48
4.146649196352544 7.107525966457474 0.431248279441857 53
4.151184150338033 7.058576079654000 0.429154841192139 55
4.158689073882144 7.012391952517351 0.427270746767393 48
4.151185790780136 6.947127879459711 0.424130589392817 51
4.146557714819841 6.884689816287854 0.421199775843212 51
4.148799630417961 6.834320392753058 0.419001665681008 46
4.149414150204479 6.787172146040127 0.416908227431291 49
4.153173786499577 6.740339260003029 0.414919461094059 51
4.152555713194640 6.684354960554714 0.412407335194397 56
4.146186982560357 6.622419382964864 0.409476521644792 54
4.082951199207476 6.471086000920278 0.400998096733436 66
4.149452531265335 6.525896106613532 0.405289645145357 52
4.159276486637975 6.491192184195342 0.404033582195526 57
4.149407747723160 6.426297519183993 0.400893424820950 57
4.150029500878042 6.378292382178222 0.398799986571232 54
4.154747274802157 6.337042735336306 0.397125235971458 47
4.157028341889174 6.294897382206514 0.395345813459198 52
4.162379897232334 6.255406482541400 0.393775734771909 54
4.158608809941428 6.202683905751860 0.391368280784734 52
4.151166652977252 6.145099273035584 0.388646811060101 52
4.155735075769691 6.105804908713760 0.387076732372813 50
4.162339030141093 6.069848183227370 0.385715997510496 52
4.157474668289757 6.019856700018543 0.383413215435807 52
4.157831477847751 5.973432580304916 0.381424449098575 57
4.153542051308149 5.925267235481605 0.379226338936371 55
4.158069842227891 5.887892310945176 0.377760932161569 55
4.159934232662808 5.844950049771334 0.375981509649308 49
4.157187402657639 5.800279159414186 0.373992743312077 55
4.158702267641735 5.759823848123671 0.372317992712302 52
4.152936751968773 5.709737741616847 0.370015210637613 55
4.155135611187561 5.671040137169113 0.368445131950325 49
4.159487234320181 5.635610968913839 0.367084397088008 55
4.164619692080922 5.599493997069739 0.365723662225691 52
4.158992249454536 5.551355567964821 0.363525552063488 55
4.154282882670792 5.504919305298904 0.361432113813770 60
4.163804116420738 5.477664348482283 0.360594738513883 57
4.163472257100118 5.437723715548024 0.358919987914109 60
4.162912531478076 5.397852452196061 0.357245237314335 57
4.158449714001370 5.353319793917680 0.355256470977103 52
4.163572879406241 5.321468450553257 0.354105079939758 60
4.167288298057451 5.288078083016805 0.352849016989927 60
4.169579835539739 5.253162474413616 0.351488282127611 66
4.169184313177677 5.215175492124332 0.349918203440322 63
4.164816895613072 5.172588567146785 0.348034109015576 60
4.161461239909844 5.131647302845599 0.346254686503316 54
4.166714613854167 5.101620995914196 0.345207967378457 57
4.163697341725770 5.065362124069869 0.343637888691169 60
4.172043603700865 5.037761405310635 0.342800513391282 63
4.165297159941734 4.994025522807356 0.340811747054050 66
4.167288814092800 4.961103695482442 0.339555684104220 72
4.171251857292515 4.929025915682292 0.338404293066875 63
4.175916825243729 4.901483642864593 0.337462245854502 69
4.174341265824172 4.863411914332690 0.335892167167213 63
4.170394623184452 4.824635054113129 0.334217416567439 60
4.170637452371420 4.792699028509296 0.332961353617609 63
4.171545363086672 4.760086646674942 0.331705290667778 63
4.177067222896033 4.731290002968163 0.330763243455405 69
4.177632158694034 4.698769047808232 0.329507180505574 69
4.162554467444603 4.650660821267078 0.327099726518399 68
4.172076922806177 4.628684697269190 0.326576366955969 71
4.173442509705555 4.597825595129828 0.325424975918625 65
4.173296146605634 4.565539375428843 0.324168912968794 62
4.181091430339326 4.542127227318188 0.323540881493879 62
4.171122979398087 4.499674802469119 0.321552115156647 71
4.173175443252010 4.470487558527918 0.320505396031788 71
4.173707151942108 4.439885767598229 0.319354004994443 68
4.174076252440832 4.409334931175037 0.318202613957098 71
4.181173637690968 4.386063998169583 0.317574582482183 71
4.172944939915722 4.346948348597131 0.315795159969923 65
4.174211550322961 4.317995756382351 0.314748440845064 62
4.173185479453648 4.288384759373757 0.313597049807719 62
4.173495449623259 4.257371658933418 0.312445658770375 62
4.179173188263030 4.234978775603397 0.311817627295459 62
4.179852245209127 4.206197885365716 0.310770908170600 37
2.609838158099092 2.607106571976434 0.193329022361435 5
2.626975411803611 2.606878755724241 0.193957053836350 21
nan nan nan 0
2.625126047063270 2.568918878213460 0.192491647061547 32
2.618321490323436 2.544428713824590 0.191340256024203 32
2.615689715094543 2.524178275555110 0.190502880724316 31
2.623481456098951 2.513192704825114 0.190398208811830 32
2.627896913229866 2.499889960174289 0.190084193074372 30
2.636607147609965 2.490701657909937 0.190084193074372 32
2.624892087492724 2.462352631625488 0.188618786299570 28
2.618857152234632 2.439561422839220 0.187572067174711 28
2.631755332672940 2.434473801213613 0.187886082912168 33
2.637295430072035 2.422570175686713 0.187676739087197 33
2.642784527609265 2.410657569283260 0.187467395262225 33
2.633419820645901 2.385327941384110 0.186211332312394 35
2.635790316142400 2.370778459181558 0.185792644662451 35
2.637680115151943 2.356701955316700 0.185373957012507 35
2.633938396116646 2.336876285872295 0.184536581712620 35
2.642079569777060 2.327667888032244 0.184536581712620 36
2.635156284221260 2.305280639760965 0.183489862587761 36
2.633740905972943 2.288669130942015 0.182861831112846 33
2.643623978043356 2.280305137801716 0.182966503025332 34
2.643587765170184 2.265028526806205 0.182443143462902 32
2.648435654171846 2.253198488367340 0.182233799637930 31
2.638753690484229 2.227552472957509 0.180977736688100 31
2.636943388392950 2.211090127118346 0.180349705213184 33
2.646180375523250 2.203149935426961 0.180454377125670 34
2.643079170474879 2.184991674718817 0.179721673738269 32
2.653397472177908 2.178749798292255 0.179931017563241 32
2.642410740411119 2.154329765740115 0.178674954613410 32
2.644078603276842 2.139604880107969 0.178256266963467 33
2.651531109447930 2.130362288184354 0.178256266963467 31
2.655828640129904 2.118602729967717 0.178046923138495 32
2.656945076256020 2.104359064350976 0.177628235488551 32
2.656424518931338 2.088898905678205 0.177104875926122 33
2.647957045481807 2.067322667293860 0.176058156801263 33
2.655157216015642 2.058066977448451 0.176058156801263 33
2.659159368381977 2.046350079659194 0.175848812976291 33
2.659937962049304 2.032205282243153 0.175430125326348 36
2.654285092902848 2.013252099770895 0.174592750026461 33
2.648532471470308 1.994363261123964 0.173755374726574 34
2.658677333683381 1.987497701145214 0.173964718551545 33
2.659183397539178 1.973444053782700 0.173546030901602 34
2.658015826885189 1.958226498449682 0.173022671339172 33
2.653211522703633 1.941146254854551 0.172289967951771 33
2.657075905841597 1.929061919533998 0.172080624126799 34
2.659548442408844 1.918832547537201 0.171871280301828 34
2.659735135381566 1.904885565615360 0.171452592651884 34
2.662475110356487 1.890724166615511 0.171138576914426 31
2.657304581644074 1.873827686485849 0.170405873527025 34
2.658920495401721 1.861104660959819 0.170091857789567 32
2.663760517342834 1.850672381293628 0.169987185877082 33
2.665271697482064 1.837961314591754 0.169673170139624 31
2.671671141998707 1.828646582679685 0.169673170139624 32
2.664505309411925 1.810795938391870 0.168835794839737 32
2.660875116874294 1.794782928585799 0.168207763364821 32
2.670755222890223 1.787239832090371 0.168417107189793 32
2.673650078220247 1.775696316259251 0.168207763364821 32
2.679832126288380 1.766352717680279 0.168207763364821 32
2.664252983937601 1.742774255794328 0.166847028502505 34
2.670017582666061 1.733929692154202 0.166847028502505 34
2.676053860139059 1.724599027807545 0.166847028502505 34
2.675327147978072 1.710943090419017 0.166428340852561 36
2.681283154889502 1.701594032272933 0.166428340852561 34
2.673979777497850 1.683243233065227 0.165590965552674 34
2.674757232725116 1.670724775612206 0.165276949815217 37
2.676887937233024 1.659740840296754 0.165067605990245 36
2.679262966740815 1.648293574715091 0.164858262165273 37
2.685000262053236 1.638931159679960 0.164858262165273 37
2.677320693791659 1.620804445720347 0.164020886865386 36
2.675832813542033 1.607802560759125 0.163602199215442 36
2.684859920625930 1.600497730389907 0.163811543040414 37
2.683553843928391 1.587049319190965 0.163392855390471 37
2.685356960384833 1.576119645479328 0.163183511565499 37
2.680758606523152 1.560238766806083 0.162555480090584 37
2.679269815715243 1.546877149334835 0.162136792440640 37
2.680918755347821 1.535998088738754 0.161927448615668 38
2.689736925026470 1.528604243971018 0.162136792440640 37
2.695321473213471 1.518735597979919 0.162136792440640 36
2.681428462063310 1.498599714190487 0.160985401403295 34
2.684896372954246 1.488262361741248 0.160880729490809 37
2.686574597837204 1.476956883623923 0.160671385665838 36
2.684699534099235 1.463745703456026 0.160252698015894 37
2.686278831821963 1.452465546057651 0.160043354190922 36
2.684291751755452 1.439304608930760 0.159624666540979 37
2.689299508801613 1.429925913392400 0.159624666540979 36
2.687207548080095 1.416803814868775 0.159205978891035 38
2.690366766797538 1.406489756176374 0.159101306978549 33
2.700823811950706 1.399376108015072 0.159415322716007 36
2.686149995273210 1.379900985876648 0.158263931678662 33
2.685611196388270 1.367796887658446 0.157949915941204 33
2.690369336867463 1.358414022048320 0.157949915941204 36
2.693073349873727 1.348590675904818 0.157845244028719 34
2.699787216344816 1.339598749818495 0.157949915941204 36
2.691670239620616 1.324465956231985 0.157217212553803 36
2.694481965448346 1.314186663852152 0.157112540641317 36
2.693658407785281 1.302165352309620 0.156798524903860 31
2.701563818146418 1.294952302457267 0.157007868728831 34
2.698851406152003 1.282086157744633 0.156589181078888 32
2.690661100570454 1.266702648705922 0.155856477691487 33
2.689855330874611 1.254300140115879 0.155542461954029 32
2.697843401518844 1.246578660124507 0.155751805779001 31
2.704210344965551 1.237513300349900 0.155856477691487 32
2.712151627896591 1.229715823534959 0.156065821516459 34
2.703250323049084 1.215456010453413 0.155333118129057 31
2.705652142026469 1.205199824026194 0.155228446216571 33
2.698878965961987 1.190910172452004 0.154600414741656 34
2.706679724122714 1.183081911650893 0.154809758566628 34
2.711202468470672 1.172680311769187 0.154809758566628 34
2.704264036961202 1.158490402821414 0.154181727091713 34
2.702375139610744 1.147646867384047 0.153867711354255 34
2.706364710978426 1.138206825921047 0.153867711354255 35
2.710715150112398 1.127806766407139 0.153867711354255 35
2.716482106552371 1.119098507715899 0.153972383266741 33
2.705577258762697 1.103574812235727 0.153135007966854 34
2.700153185852328 1.090384545792360 0.152611648404424 34
2.705608611688314 1.082166237630288 0.152716320316910 34
2.709556776177291 1.072242417637256 0.152716320316910 34
2.709007641747261 1.062739487869078 0.152506976491938 33
2.705253430888321 1.050385180333424 0.152088288841995 34
2.705537464183681 1.038558527941035 0.151878945017023 34
2.707099607161653 1.028871365588921 0.151774273104537 35
2.712721979562375 1.019645157718949 0.151878945017023 34
2.716264678544574 1.010169778874649 0.151878945017023 32
2.706305601085053 0.996799281288319 0.151146241629622 34
2.700385736931095 0.983927649360907 0.150622882067192 33
2.717127325860469 0.978761759476755 0.151355585454594 34
2.716764456654441 0.967930628041255 0.151146241629622 34
2.710874551731262 0.954649627964944 0.150622882067192 34
2.706645728148755 0.942553766250794 0.150204194417249 33
2.709919364974827 0.933100067149228 0.150204194417249 32
2.716941389929456 0.924922294682993 0.150413538242221 33
2.716367540604280 0.914158675685419 0.150204194417249 33
2.723332303278869 0.905932079921704 0.150413538242221 34
2.715093963129275 0.892677474422552 0.149785506767305 33
2.710595422726007 0.880725841362441 0.149366819117362 33
2.719358162950678 0.873090390091817 0.149680834854819 34
2.720485481189730 0.862988828499728 0.149576162942333 34
2.723332297120637 0.853962628537740 0.149576162942333 33
2.714849579925334 0.840905590724430 0.148948131467418 33
2.709984058602991 0.829559766645496 0.148529443817475 33
2.720654001770970 0.821932026861085 0.148948131467418 41
2.719678667134878 0.811288309161488 0.148738787642446 24
nan nan nan 0
2.717466841984794 0.790525844391824 0.148320099992503 7
2.718153778472458 0.780958528639617 0.148215428080017 10
2.717288991740293 0.769427536802854 0.148006084255045 5
4.185734887640545 1.169465716673798 0.227766081569292 26
4.187866128179058 1.154316930051546 0.227661409656806 32
4.213070194017506 1.145455473826803 0.228812800694150 60
4.209523383357189 1.127938391090486 0.228394113044207 50
4.217296970804351 1.114257923261893 0.228603456869179 56
4.221160763584764 1.099530021181758 0.228603456869179 56
4.217235076840837 1.082801929144765 0.228184769219235 56
4.216743857872600 1.068566536304599 0.227975425394263 58
4.212697108680353 1.051905414770431 0.227556737744320 58
4.216343278612691 1.037193949078348 0.227556737744320 58
4.223820261473101 1.023410480137795 0.227766081569292 56
4.219947187307679 1.005333227746945 0.227347393919348 58
4.215652788624928 0.988772434905906 0.226928706269404 60
4.215186426426841 0.973152465526191 0.226719362444433 60
4.216610056207659 0.957990300537304 0.226614690531947 60
4.227394884032436 0.946484199365052 0.227033378181890 60
4.234574011183978 0.932581197054792 0.227242722006862 60
4.222187486103181 0.914412079522248 0.226405346706975 61
4.217696447652409 0.897268468959256 0.225986659057031 61
4.224558524956350 0.884095378055346 0.226196002882003 61
4.223706205791034 0.868538955424889 0.225986659057031 63
4.230776763508164 0.853842693732042 0.226196002882003 61
4.213994085207945 0.835922035752199 0.225149283757144 61
4.216742932602406 0.821943331605839 0.225149283757144 61
4.219586360415154 0.807219144360463 0.225149283757144 60
4.218590527985018 0.791011997771460 0.224939939932173 60
4.225254616172340 0.777004008057855 0.225149283757144 60
4.216280306940519 0.759388293680630 0.224521252282229 60
4.214971668430298 0.743971775038661 0.224311908457257 61
4.217542935509916 0.729254245688479 0.224311908457257 60
4.222032044523888 0.714861254698128 0.224416580369743 56
4.224501653910254 0.700119257387394 0.224416580369743 60
4.217062233598880 0.683770388091318 0.223893220807314 60
4.215478116015587 0.668420359184120 0.223683876982342 60
4.221733045830245 0.654313315943833 0.223893220807314 61
4.231778407563867 0.641507347581060 0.224311908457257 61
4.228064711132085 0.625854410016142 0.223997892719800 58
4.218363151919745 0.609378555261959 0.223369861244884 58
4.216509130858095 0.594092697190585 0.223160517419912 55
4.224594466281751 0.579448641806762 0.223474533157370 58
4.226591381828138 0.564698524954870 0.223474533157370 63
4.232401819003714 0.551195396998380 0.223683876982342 61
4.218541891977647 0.533673816406183 0.222846501682455 54
4.218306136434141 0.519437596437529 0.222741829769969 57
4.222076739348412 0.504946971216752 0.222846501682455 55
4.225797553385098 0.490436348568456 0.222951173594941 55
4.223431273760590 0.475973059207897 0.222741829769969 55
4.227132935874671 0.460706608517258 0.222846501682455 55
4.220770369390431 0.445110499112837 0.222427814032511 57
4.226272308494242 0.430779607683435 0.222637157857483 55
4.231725579639052 0.416415724146450 0.222846501682455 60
4.237200120538362 0.401279489003198 0.223055845507427 58
4.226640987739552 0.385398272316755 0.222427814032511 57
4.220002014684717 0.369944514569113 0.222009126382568 57
4.229228553137559 0.355881599511275 0.222427814032511 58
4.238348523801130 0.342498507267797 0.222846501682455 22
4.241509564274887 0.327855746262435 0.222951173594941 55
4.312342700797879 0.318192100641054 0.226614690531947 16
nan nan nan 0
3.320040962532659 0.221680930047632 0.174383406201489 10
nan nan nan 0
nan nan nan 0
3.421919156508255 0.191914092700227 0.179617001825783 1
3.306887004167792 0.173885355405406 0.173546030901602 4
3.327422406219301 0.163320244391054 0.174592750026461 4
3.331909381533931 0.153049342472717 0.174802093851432 2
4.553680380082107 0.192448105646224 0.238861304292796 3
4.562276509336072 0.177657360714805 0.239279991942739 7
3.233529109349239 0.114612492338795 0.169568498227138 1
4.539450717104064 0.145037223533081 0.238023928992909 3
nan nan nan 0
3.450188810851557 0.086128415249513 0.180873064775614 1
3.442481239942912 0.073912992209072 0.180454377125670 2
3.211073654773370 0.057731341153791 0.168312435277307 1
4.573243377503388 0.066253702711054 0.239698679592683 3
4.557478354782280 0.049318586785799 0.238861304292796 5
4.565611564694802 0.033468280221236 0.239279991942739 7
3.227544651402910 0.012956264205704 0.169149810577194 1
3.187625037983798 0.001669036719480 0.167056372327477 1
3.211576735209595 -0.010089499070918 0.168312435277307 1
3.227499671406457 -0.021405902291419 0.169149810577194 2
3.251376863816979 -0.032346989089524 0.170405873527025 2
4.553339463524178 -0.061196173722046 0.238651960467824 7
3.163195606028133 -0.054109291388686 0.165800309377646 1
3.198930497379866 -0.065890922397851 0.167684403802392 1
4.580402601925893 -0.109542933222433 0.240117367242626 5
nan nan nan 0
4.563531101286608 -0.141820213812157 0.239279991942739 5
4.567000386968796 -0.157887059255692 0.239489335767711 7
3.149414680257845 -0.119336877740281 0.165172277902731 1
3.172902569211001 -0.131874537554800 0.166428340852561 1
4.589111331581726 -0.205180016923038 0.240745398717542 5
3.124079554123477 -0.150606819178840 0.163916214952900 1
3.123478236994150 -0.162601283818525 0.163916214952900 1
3.122921857762562 -0.172958216874311 0.163916214952900 1
3.138249537384931 -0.184797444793166 0.164753590252787 1
3.205360387705999 -0.199979271566511 0.168312435277307 1
3.120939444867406 -0.205651296971934 0.163916214952900 1
3.092308042732169 -0.214608256542523 0.162450808178098 2
3.071620363703995 -0.223948791726658 0.161404089053239 2
3.056879754911384 -0.233604087809136 0.160671385665838 5
3.048039494871104 -0.244168610768321 0.160252698015894 12
nan nan nan 0
nan nan nan 0
3.013537487030768 -0.272662518241100 0.158577947416120 100
3.028475304167385 -0.284675406264076 0.159415322716007 100
3.035414465957254 -0.296020453664570 0.159834010365950 78
3.028347793909980 -0.306540389564379 0.159519994628493 52
nan nan nan 0
nan nan nan 0
3.370408232124262 -0.376265016252880 0.177732907401037 2
nan nan nan 0
4.605299034050237 -0.546703199907906 0.243048180792231 69
4.607425861907994 -0.562455957154408 0.243257524617203 58
4.613259974111146 -0.580336380764780 0.243676212267146 67
4.611310144052693 -0.595631311242005 0.243676212267146 65
4.617122501721031 -0.612775231170285 0.244094899917090 67
4.606929868845536 -0.628613623073816 0.243676212267146 67
4.604819980487471 -0.643887296720861 0.243676212267146 69
4.614406567925837 -0.661658115927343 0.244304243742062 72
4.619972982937422 -0.678922914460254 0.244722931392005 72
4.617574953248822 -0.695045493460713 0.244722931392005 72
4.607224816137179 -0.709942906196939 0.244304243742062 72
4.600646133832130 -0.726201646300765 0.244094899917090 69
4.609913591031466 -0.744166224760487 0.244722931392005 72
4.615170323884827 -0.761553982424300 0.245141619041949 70
4.620361741833622 -0.778987490514167 0.245560306691892 74
4.611709541448612 -0.794094051158252 0.245246290954435 72
4.606942442270885 -0.809841293227673 0.245141619041949 72
4.615882772684412 -0.828033518476199 0.245769650516864 72
4.612964274773841 -0.844140911545621 0.245769650516864 74
4.623733149837181 -0.862802612777909 0.246502353904265 76
4.608920770464542 -0.876697866514136 0.245874322429350 74
4.609753970827785 -0.893540797971922 0.246083666254322 74
4.612485120483721 -0.910787129699006 0.246397681991780 74
4.617110026975955 -0.928457149509325 0.246816369641723 74
4.621667679950987 -0.946170535655412 0.247235057291667 72
4.610683308158379 -0.959863069164864 0.246816369641723 72
4.607134265072829 -0.976755621058169 0.246816369641723 72
4.615584576789248 -0.994552302727836 0.247444401116638 72
4.615986754678731 -1.011512680714833 0.247653744941610 70
4.620045916531914 -1.030162995513283 0.248072432591554 70
4.612708501685817 -1.044595695808892 0.247863088766582 72
4.605326213724412 -1.058991070689061 0.247653744941610 72
4.617160680257097 -1.078695237705696 0.248491120241497 70
4.624835300650899 -1.098379756778775 0.249119151716413 70
4.624856234360912 -1.115453321660783 0.249328495541384 72
4.609097693705274 -1.129544390032480 0.248700464066469 72
4.609003137114371 -1.146590593719196 0.248909807891441 70
4.608845688981940 -1.163649888669565 0.249119151716413 70
4.612494799420026 -1.181713413669987 0.249537839366356 70
4.620358808751923 -1.199208703877164 0.250165870841272 68
4.612281757841335 -1.214312447801633 0.249956527016300 68
4.609729664956777 -1.231724730939415 0.250061198928786 68
4.615040824528624 -1.250419756313825 0.250584558491215 68
4.620277519122820 -1.269166836857567 0.251107918053644 66
4.613895092124394 -1.284751123485413 0.251003246141159 70
4.611304542169156 -1.301391268166833 0.251107918053644 68
4.602893200237067 -1.316381438892769 0.250898574228673 68
4.609780192005277 -1.335775785084838 0.251526605703588 72
4.616587730524100 -1.355234210505226 0.252154637178503 72
4.623555322332510 -1.373949454586733 0.252782668653419 72
4.608926402343717 -1.388006721437592 0.252259309090989 74
4.611940253566735 -1.405611940577409 0.252677996740933 72
4.618456373019040 -1.425235695100752 0.253306028215848 72
4.621078777343075 -1.443730827456509 0.253724715865792 72
4.623883385437907 -1.461454606999726 0.254143403515735 74
4.614691466503491 -1.477174384529068 0.253934059690763 72
4.605706963114601 -1.492042606119711 0.253724715865792 74
4.615653774563893 -1.513087695771609 0.254562091165679 74
4.621718196644371 -1.532962788887253 0.255190122640594 76
4.623642097290639 -1.552434827058346 0.255608810290538 74
4.606848003390105 -1.564710924131091 0.254980778815622 74
4.609189954072278 -1.582573562210711 0.255399466465566 74
4.614958081142187 -1.602584109991972 0.256027497940481 74
4.616590609759313 -1.622136398635535 0.256446185590425 74
4.618428171473393 -1.640916104447800 0.256864873240368 74
4.605153550264999 -1.654326489051604 0.256446185590425 76
4.610614533279907 -1.674482150525453 0.257074217065340 76
4.609081518404921 -1.690333909614842 0.257283560890312 76
4.621880301596390 -1.713354587977208 0.258330280015171 78
4.619007524221891 -1.732491487449842 0.258539623840143 78
4.609196692287052 -1.747188403761136 0.258330280015171 81
4.610530190648476 -1.766124665149989 0.258748967665114 78
4.622963135609401 -1.789417236957836 0.259795686789973 76
4.617003795594094 -1.804737696341231 0.259795686789973 76
4.623360711272217 -1.826785343540956 0.260528390177374 76
4.611712232053986 -1.839886618261706 0.260214374439917 76
4.614524125963253 -1.859706139412996 0.260737734002346 76
4.609526697169489 -1.877360079302397 0.260842405914832 78
4.619900794922378 -1.899470859259617 0.261784453127205 74
4.620620494581403 -1.918649461996879 0.262203140777149 74
4.613895007720290 -1.934766748396400 0.262203140777149 72
4.611472877520091 -1.950808444676593 0.262412484602120 76
4.619328880868106 -1.973170089383929 0.263249859902007 76
4.622372153655759 -1.996448880274747 0.263877891376923 76
4.624528943239141 -2.016563421180992 0.264401250939352 76
4.608321780402200 -2.028670211422539 0.263877891376923 76
4.617638707137039 -2.052043657058821 0.264819938589296 78
4.622104824586613 -2.071441132574602 0.265447970064211 83
4.622124923108103 -2.090855354992022 0.265866657714155 80
4.625330738769358 -2.112761259023209 0.266494689189070 83
4.621555240973494 -2.130566148563445 0.266704033014042 83
4.621333490556649 -2.150055399557082 0.267122720663985 80
4.624647734619999 -2.171266650000217 0.267750752138901 80
4.623877750666897 -2.191623986556767 0.268169439788844 80
4.630613746909074 -2.214644815850279 0.269006815088731 80
4.619646403906600 -2.228252908068343 0.268797471263760 80
4.620819644924805 -2.248734777415978 0.269320830826189 80
4.622302064113017 -2.268445225481551 0.269844190388618 80
4.626484948708621 -2.291577003708825 0.270576893776020 78
4.636728299323318 -2.315830583434152 0.271623612900878 78
4.621481624823828 -2.328407069207478 0.271204925250935 78
4.623598713463359 -2.350761106641349 0.271832956725850 78
4.628219336429484 -2.372458162924536 0.272565660113251 80
4.630554668550528 -2.394102894288660 0.273193691588167 80
4.629253263612827 -2.413945833538449 0.273612379238110 80
4.617263393446074 -2.428230947782712 0.273403035413139 77
4.621110347927361 -2.450884074980077 0.274135738800540 82
4.622662455241643 -2.473458448295287 0.274763770275455 82
4.622788883188277 -2.494321538538385 0.275287129837885 85
4.622825878181163 -2.515215591943427 0.275810489400314 82
4.617520074406964 -2.533258260445427 0.276019833225286 82
4.619135340182497 -2.555161573762792 0.276647864700201 82
4.627631032272240 -2.580998401251962 0.277694583825060 80
4.626010950731062 -2.600244544643016 0.278113271475003 82
4.630807330374587 -2.624254180831739 0.278950646774891 85
4.621157853740787 -2.641209311560468 0.278950646774891 85
4.625754542261078 -2.665301029425097 0.279788022074778 86
4.626785064340702 -2.687450614486789 0.280416053549693 89
4.627717190556890 -2.709639796448399 0.281044085024608 86
4.629027387726611 -2.731060281733747 0.281672116499524 86
4.626332548486108 -2.751285504819943 0.282090804149467 86
4.617183519824117 -2.766611848900903 0.282090804149467 100
4.612140767429404 -2.786614623359380 0.282404819886925 63
4.568754018808876 -2.781123558014345 0.280311381637207 52
4.540291888268528 -2.785565520495129 0.279159990599862 50
4.504087035558930 -2.787213629579610 0.277589911912574 47
4.460921953853139 -2.781002160126889 0.275496473662856 47
3.806847469077260 -2.391736027216617 0.235616475005733 12
nan nan nan 0
3.771536429297316 -2.406437010786476 0.234465083968388 33
3.731194153441376 -2.399064182356435 0.232476317631157 29
3.703940180588354 -2.400774024551141 0.231324926593812 31
3.678815461210769 -2.402766894545012 0.230278207468953 29
3.650385431527445 -2.402417752725794 0.229022144519122 29
3.628661002038245 -2.406314826323264 0.228184769219235 30
3.596990045600983 -2.403431909278943 0.226719362444433 29
3.573667597146178 -2.405934435730546 0.225777315232060 14
2.938808594356813 -1.993465413968681 0.186106660399908 23
2.913693752845701 -1.991315209343554 0.184955269362564 21
2.890969473886113 -1.989137789648600 0.183908550237705 21
2.864311205435733 -1.985562738193597 0.182652487287874 19
2.850117863892955 -1.991969629333686 0.182233799637930 19
2.830082795408721 -1.992707381521164 0.181396424338043 19
2.810077463425775 -1.993329646435079 0.180559049038156 19
2.796602377101718 -1.998481572241271 0.180140361388213 20
2.775718195241711 -1.996760492598107 0.179198314175840 19
2.750593563104443 -1.994025662765984 0.178046923138495 19
2.734635457897090 -1.995593006926222 0.177418891663580 19
2.730871347480802 -2.007492439205093 0.177628235488551 19
2.703886850080331 -2.003693778678927 0.176372172538721 19
2.684421667308847 -2.003093569217652 0.175534797238834 19
2.667833915564576 -2.005251560840532 0.174906765763918 19
2.654448625188788 -2.009729436225046 0.174488078113975 19
2.641064657732410 -2.014138356960680 0.174069390464031 19
2.630850121922072 -2.020911754670471 0.173860046639059 19
2.598154634199447 -2.010981034374964 0.172185296039285 20
2.581668280963322 -2.012670115056881 0.171557264564370 19
2.565553425728850 -2.013820949589713 0.170929233089455 19
2.549107728348846 -2.015332054526209 0.170301201614539 19
2.544828450960329 -2.027150292671160 0.170510545439511 19
2.519042677688001 -2.021022738156010 0.169254482489680 19
2.499544827274800 -2.019761207284073 0.168417107189793 19
2.492479316875724 -2.028473941896357 0.168417107189793 19
2.479204733018280 -2.032097542642053 0.167998419539850 19
2.459774309440743 -2.030567293123751 0.167161044239963 19
2.437313329066843 -2.026372563707043 0.166114325115104 19
2.417974457632764 -2.024610345744414 0.165276949815217 19
2.413946212935298 -2.035613413119634 0.165486293640188 20
2.391602449346200 -2.031098557582688 0.164439574515330 19
2.387890030638476 -2.041614051496204 0.164648918340301 19
2.359205167280716 -2.032103865512076 0.163183511565499 19
2.346772778462872 -2.034272631276691 0.162764823915555 19
2.341162147403196 -2.043765477469266 0.162869495828041 20
2.326156753861693 -2.045737639215560 0.162346136265612 19
2.304406087855001 -2.040200745095164 0.161299417140753 19
2.285344290938796 -2.037598931340933 0.160462041840866 20
2.266328881849379 -2.034889030175117 0.159624666540979 19
2.259211986325266 -2.042787597053577 0.159624666540979 19
2.241730203710417 -2.041248401791818 0.158891963153577 19
2.232761769906850 -2.048100943553014 0.158787291241092 20
2.218263433473846 -2.049106114295313 0.158263931678662 19
2.193548813388977 -2.040512713128012 0.157007868728831 19
2.182039905487192 -2.044060881504308 0.156693852991374 17
2.175249557740724 -2.051285547646525 0.156693852991374 17
2.166627702026623 -2.057490760411788 0.156589181078888 17
2.140310078689891 -2.047469876834251 0.155228446216571 17
2.130273231741163 -2.052157166500841 0.155019102391600 17
2.114495550238649 -2.051236691667286 0.154391070916684 17
2.107322515747429 -2.058605161716332 0.154391070916684 17
2.094428553201955 -2.060345975976736 0.153972383266741 17
2.073034694454669 -2.053588297793401 0.152925664141882 17
2.060197704730542 -2.055169832287419 0.152506976491938 17
2.051602204369450 -2.060933267377982 0.152402304579452 18
2.043712864312228 -2.065948489030825 0.152297632666967 17
2.033328257267677 -2.070575125561473 0.152088288841995 18
2.012504135183061 -2.063009827918535 0.151041569717136 17
1.995562951588629 -2.059980521983047 0.150308866329735 16
1.986614941073454 -2.065841178765488 0.150204194417249 17
1.975614584401721 -2.068085092116510 0.149890178679791 16
