# This PCD file was generated using the MATLAB® pcwrite function
# from Computer Vision Toolbox®.
# .PCD v.7 - Point Cloud Data file format
VERSION .7
FIELDS x y z intensity
SIZE 8 8 8 1
TYPE F F F U
COUNT 1 1 1 1
WIDTH 874
HEIGHT 1
VIEWPOINT 0 0 0 1 0 0 0
POINTS 874
DATA ascii
-5.668577077410860 10.715121946581364 -0.211592975645625 3
-5.647860426332399 10.766718847471861 -0.212221262277368 4
-5.652689073860500 10.867975354134654 -0.213826883669598 4
-5.658793553820604 10.968408287030583 -0.215432505061828 4
nan nan nan 0
-3.351781780776929 6.609581650862142 -0.129357236513145 2
nan nan nan 0
nan nan nan 0
nan nan nan 0
nan nan nan 0
nan nan nan 0
nan nan nan 0
nan nan nan 0
nan nan nan 0
nan nan nan 0
-3.353879049981200 7.222013073221530 -0.138990964866526 7
-3.323633543271129 7.222776734422258 -0.138781535989278 7
-3.290504337630701 7.220352783460416 -0.138502297486282 7
-3.260343135894534 7.220859624637312 -0.138292868609035 7
-3.240016988136645 7.243148695848855 -0.138502297486282 33
-3.198510746328389 7.217849749596171 -0.137804201228791 9
-3.169733351429957 7.217431271543509 -0.137594772351543 7
-3.146913593832799 7.233952839512300 -0.137699486790167 45
-3.114050929894011 7.230745361398570 -0.137420248287170 45
-3.082515508713036 7.226856473044072 -0.137141009784174 42
-3.057460178265098 7.230979346677815 -0.137036295345550 42
-3.020615646253042 7.213939935571188 -0.136512723152432 38
-3.006668411607055 7.258739656860528 -0.137141009784174 42
-3.008629046487515 7.335795619402043 -0.138397583047658 38
-3.012675458090849 7.411901733080529 -0.139654156311143 35
-3.011419553956246 7.483592047683484 -0.140806015136003 33
-3.007641155736809 7.554030483731607 -0.141922969147990 33
-3.014249043808732 7.648202158942617 -0.143493685727345 35
-3.007154830528586 7.708977495992404 -0.144436115674958 9
nan nan nan 0
nan nan nan 0
nan nan nan 0
nan nan nan 0
nan nan nan 0
nan nan nan 0
nan nan nan 0
-3.291658373362558 9.178100158514948 -0.170195867576389 2
nan nan nan 0
nan nan nan 0
-2.916198172177479 8.407238662288590 -0.155326417291823 2
-2.888131119498731 8.421149960025817 -0.155396226917572 2
nan nan nan 0
nan nan nan 0
nan nan nan 0
nan nan nan 0
nan nan nan 0
-3.841048166710048 12.006647967091364 -0.220039940361271 1
-3.777418296509784 11.951340546209639 -0.218783367097786 3
-3.735677319393386 11.964453385075776 -0.218783367097786 3
-3.703320028629139 12.007994583650486 -0.219341844103779 1
-3.642736896887631 11.959634684947442 -0.218224890091793 4
-3.600967788349308 11.972277347464646 -0.218224890091793 4
-3.135608550188273 10.558563006499639 -0.192255709313115 1
-3.096482833190362 10.561768292842673 -0.192116090061617 1
nan nan nan 0
-3.902641876604986 13.655092491709297 -0.247893981035175 1
-3.752754184390845 13.315157661417844 -0.241471495466255 1
-3.062292671885012 11.012410317147658 -0.199515910391025 1
-3.721568837715296 13.548006721746408 -0.245241215256708 3
-3.682622014243884 13.591796555698215 -0.245799692262701 1
-3.607279979795426 13.500244912664300 -0.243914832367474 3
-3.560133354001087 13.512754421518959 -0.243914832367474 3
-2.761737013495209 10.625275883437901 -0.191627422681373 8
-2.732571690699372 10.665845514311076 -0.192185899687366 8
-2.897987617445466 11.478003708363961 -0.206636492217437 3
nan nan nan 0
-2.815779249209969 11.498447224725719 -0.206636492217437 1
-2.760621644936245 11.445999556741443 -0.205519538205451 4
-2.738209379899842 11.529498174541470 -0.206845921094684 1
-2.744385075044156 11.737598382370365 -0.210406212007890 3
-2.738377401040866 11.899109602379704 -0.213128787412106 3
-2.740991878493778 12.103626878521133 -0.216619268699563 3
-2.743950817008703 12.316112378879438 -0.220249369238518 3
-2.751451760138956 12.556110390987195 -0.224368137157717 3
-2.758823288734427 12.781661996397155 -0.228242571386794 15
-2.756112957010975 12.988784584482049 -0.231767957487125 3
-2.751726082933777 13.206309948195425 -0.235467867651829 3
-2.759353924471967 13.478349166140731 -0.240145112577021 3
-2.767515342118485 13.750116539302709 -0.244822357502213 3
-2.811004666153614 14.222665483559862 -0.253059893340611 3
-2.776361582961065 14.323177923780175 -0.254665514732841 3
-1.501807893366166 7.895209806434853 -0.140282442942885 16
-1.462767558104747 7.831347085396859 -0.139060774492275 11
-1.424973538676246 7.779363278320357 -0.138048534918913 16
-1.400937265598889 7.793886653257257 -0.138223058983285 28
-1.367825693472948 7.765249960190520 -0.137629677164418 11
-1.337651370415166 7.752242079256189 -0.137315533848547 14
-1.312914844147125 7.770666373925783 -0.137559867538669 23
-1.287087189215790 7.783093563532069 -0.137699486790167 26
-1.260230650423890 7.789512946590559 -0.137734391603041 33
-1.230845162369862 7.780038603390462 -0.137490057912920 14
-1.192068214695876 7.709191710232393 -0.136163675023686 21
-1.167540291606018 7.729123947694518 -0.136442913526683 19
-1.144638369105446 7.760848455299328 -0.136931580906926 19
-1.112128468456363 7.727189993502311 -0.136268389462310 19
-1.082647142609817 7.713202422311601 -0.135954246146439 23
-1.058410099758728 7.716565589929465 -0.135954246146439 26
-1.032527084711869 7.728141450513019 -0.136093865397937 26
-1.005802444374908 7.733681555430787 -0.136128770210811 21
-0.979804628400692 7.745080878609205 -0.136268389462310 21
-0.953251377509084 7.752423344138687 -0.136338199088059 16
-0.811893482297922 6.798650554209667 -0.119514079282517 4
-2.073410882491676 17.865345135959785 -0.313933886993856 5
-2.009247777708557 17.856576607212631 -0.313654648490859 15
-0.371788119308917 3.411276884774120 -0.059896658892757 1
-0.357151925188941 3.386701203887093 -0.059442896325388 8
-0.344534216800000 3.385998060247298 -0.059407991512513 12
nan nan nan 0
-0.322234187078035 3.396227791348875 -0.059547610764011 2
-0.311832638125648 3.413263124036350 -0.059826849267008 2
-0.298166423624508 3.394410578435485 -0.059477801138262 3
-0.285307748415115 3.383474951694460 -0.059268372261015 3
-0.274300824526427 3.394416238433433 -0.059442896325388 5
-0.262912761482346 3.401334291407127 -0.059547610764011 6
-0.250004075692213 3.396292170030978 -0.059442896325388 23
-0.237587921074507 3.389164956311185 -0.059303277073889 33
-0.226214514635776 3.387938938856135 -0.059268372261015 26
-0.216280900899521 3.418643516847653 -0.059791944454133 5
-0.204226998940686 3.417381516470907 -0.059757039641259 3
-0.191847575347548 3.410087428647445 -0.059617420389760 2
-0.179347691511851 3.410767680264290 -0.059617420389760 3
-0.167930964104230 3.421359395718816 -0.059791944454133 6
-0.155304671717301 3.393930992267091 -0.059303277073889 23
-0.144132183204349 3.410435725475892 -0.059582515576886 33
-0.132556695441701 3.434919585331209 -0.060001373331381 55
-0.119653997847233 3.409381322593803 -0.059547610764011 40
-0.109261829995679 3.419733778983028 -0.059722134828384 43
-0.097835998329323 3.438084315827273 -0.060036278144255 35
-0.085283686958061 3.440418891024315 -0.060071182957130 11
-0.073060982658636 3.430699416018028 -0.059896658892757 15
-0.060551200570073 3.400942867600877 -0.059373086699639 33
-0.048908270143784 3.417129435829065 -0.059652325202635 50
-0.037730303162807 3.431269854511115 -0.059896658892757 75
-0.025707684109373 3.425381736150896 -0.059791944454133 51
-0.013145181503701 3.423453271247696 -0.059757039641259 56
-0.001199905590026 3.437476166524638 -0.060001373331381 67
0.029361513085535 3.433162788227203 -0.179931017563241 38
nan nan nan 0
0.053669854043273 3.454841343399488 -0.181082408600586 5
0.065387230213656 3.436660873627759 -0.180140361388213 22
nan nan nan 0
0.089066258815935 3.424141136832656 -0.179512329913297 40
0.101548323960062 3.441776889293826 -0.180454377125670 42
0.114286330585440 3.463359348899741 -0.181605768163015 52
0.125553144871264 3.456973489674951 -0.181291752425557 34
nan nan nan 0
0.149770539704610 3.458008114894175 -0.181396424338043 3
0.162400652446602 3.469434698271595 -0.182024455812959 4
0.174710952026152 3.472836150110114 -0.182233799637930 4
0.186081155380686 3.458244519358347 -0.181501096250529 5
0.197434158102542 3.455614430235485 -0.181396424338043 22
0.208044669618402 3.430981035453605 -0.180140361388213 22
0.223438670535837 3.474044567922604 -0.182443143462902 15
nan nan nan 0
0.247686434908435 3.472400024387416 -0.182443143462902 3
0.259805863977264 3.471514282333634 -0.182443143462902 3
0.270710647714201 3.470680948260374 -0.182443143462902 2
0.283472986730224 3.477677474481540 -0.182861831112846 3
0.296287461229888 3.484627095079184 -0.183280518762789 3
0.306687713968656 3.463676874128157 -0.182233799637930 7
nan nan nan 0
0.330894038774486 3.455429109000663 -0.181919783900473 28
nan nan nan 0
0.358890223605237 3.490783787711586 -0.183908550237705 3
0.368538782372528 3.465677024013480 -0.182652487287874 3
0.380634007516729 3.464369469500808 -0.182652487287874 2
0.398125964540275 3.510648627017803 -0.185164613187535 2
2.080423861448489 17.790187721430975 -0.938697711173440 13
2.149199903495614 17.838339034120928 -0.941628524723045 71
2.222516420923029 17.919921531875175 -0.946338760784910 57
2.280162017196496 17.898584143991602 -0.945606057397509 54
2.340292034510828 17.872692665098509 -0.944664010185136 20
2.329355412084740 17.342250205681900 -0.917030625288862 5
2.347322375998948 17.025360904195473 -0.900701806941063 7
2.386184673173600 16.850530685644046 -0.891909366292249 52
2.428060186438473 16.725482818207844 -0.885733723455581 13
2.480869127838968 16.699558918132723 -0.884791676243208 7
2.539146352506456 16.690797329372970 -0.884791676243208 7
2.602149842414276 16.693219346153924 -0.885419707718124 26
nan nan nan 0
2.131770561785112 13.075177755591827 -0.694288795518893 37
2.181994207330177 13.095238194441835 -0.695754202293695 33
2.226686398278731 13.081635013661064 -0.695440186556238 39
2.273704313453931 13.081653760980279 -0.695858874206181 39
2.317072138998836 13.074041958394652 -0.695858874206181 37
2.361273348226972 13.058012678883246 -0.695440186556238 22
2.407564448311260 13.053619006164846 -0.695649530381209 9
2.459390310747885 13.078504048822454 -0.697428952893470 37
2.185569581411429 11.392328879020718 -0.607934467718035 8
2.554063800282777 13.066450813201389 -0.697742968630927 15
2.600048652873674 13.059414675753189 -0.697847640543413 13
2.654348781935639 13.093322952159411 -0.700150422618103 1
2.493178324681482 12.102914750033779 -0.647605122550187 3
3.126336569242270 14.912910993415943 -0.798542020354837 2
2.483820008038285 11.635516481021947 -0.623530582678433 1
2.138786267971909 9.850652285393508 -0.528279142316275 3
2.514774999118764 11.399899056422621 -0.611807328480013 19
nan nan nan 0
2.186845686555245 9.594428401876350 -0.515718512817969 3
2.447447763098713 10.567397111730131 -0.568473156710856 1
2.204370806321982 9.368957248223742 -0.504413946269493 6
2.236132706660142 9.357320355586772 -0.504204602444521 3
2.610724493211042 10.758572663012316 -0.580196410909275 14
2.245027585416249 9.112647005974788 -0.491853316771186 14
2.273781281937597 9.099339085749552 -0.491539301033728 27
2.311421523863868 9.114578392238181 -0.492795363983559 30
2.348200367580558 9.125797007968435 -0.493842083108418 16
2.379536578044545 9.115612159505998 -0.493737411195932 19
2.415431124413608 9.122696326403540 -0.494574786495819 17
2.448296439109432 9.118067186121563 -0.494784130320791 13
2.482208192661466 9.117173940282049 -0.495202817970735 9
2.520394656390301 9.131557115607080 -0.496458880920565 6
2.164815388370771 7.737853012801333 -0.421095103930726 32
2.184729682338946 7.705269578316511 -0.419734369068409 22
2.182933514375426 7.597777298865812 -0.414291429619143 33
2.206092077201554 7.578605171134349 -0.413663398144228 29
2.250407153320107 7.636385090086207 -0.417222243168748 38
2.300471133920309 7.706949765342102 -0.421513791580670 42
nan nan nan 0
2.335511816595319 7.629588663931608 -0.418164290381121 5
2.384437145870048 7.698115288122784 -0.422351166880557 1
nan nan nan 0
2.319756233728480 7.303951223085915 -0.401626128208351 3
2.340347916782199 7.280597777926981 -0.400788752908464 35
nan nan nan 0
2.407355008559424 7.313406960028577 -0.403510222633097 3
2.449277350779376 7.354227374176252 -0.406231692357730 1
nan nan nan 0
nan nan nan 0
nan nan nan 0
nan nan nan 0
nan nan nan 0
nan nan nan 0
nan nan nan 0
nan nan nan 0
nan nan nan 0
4.082276742057087 10.971050101968711 -0.613482079079788 4
4.110002304826720 10.928691996670723 -0.611912000392499 27
2.836137136730288 7.462260089534571 -0.418373634206093 19
2.851426820839834 7.424347505437910 -0.416803555518805 24
2.863752781082838 7.383195444918310 -0.415024133006545 19
2.882948714548624 7.356418064214865 -0.414082085794172 14
2.892973993838309 7.303093965471196 -0.411674631806996 10
4.114619701077717 10.282078285802656 -0.580405754734247 14
4.109787984174823 10.172082209959365 -0.574962815284981 24
4.118102885323050 10.091103077693003 -0.571194626435489 17
nan nan nan 0
3.270476514351083 7.856815201338861 -0.446007019102367 4
3.314909311022262 7.885857631346543 -0.448309801177057 19
3.355682547493408 7.905492668465825 -0.450089223689317 21
3.410795564510863 7.957982286200887 -0.453752740626323 22
3.475040859326040 8.030345617572845 -0.458567648600674 13
4.105150179873982 9.396317508417205 -0.537385598702547 13
4.119386795331669 9.339900150168843 -0.534978144715372 39
4.122719130120598 9.259778774729265 -0.531209955865880 32
4.109986935646749 9.145135676024184 -0.525453000679156 30
4.119607309623506 9.081623906587655 -0.522626859042037 35
4.118857591983689 8.996365242601833 -0.518544654455087 32
4.123544826628014 8.928260763843008 -0.515404497080511 35
4.114184564293688 8.826919132752622 -0.510380245281188 34
4.116068608705777 8.751055209325832 -0.506821400256668 35
4.120042645347026 8.680699467075932 -0.503576570969606 37
4.124438656518956 8.612224635049891 -0.500436413595029 39
4.126669230098601 8.540228900145623 -0.497086912395480 35
4.123196408885764 8.457551567290777 -0.493109379721017 37
4.120960057147941 8.378587793077523 -0.489341190871525 40
4.123549498281583 8.310478210683680 -0.486201033496948 40
4.130183878870214 8.251383363637744 -0.483584235684801 40
4.128198783222871 8.183088222722438 -0.480339406397738 42
4.126846384964596 8.109886767962836 -0.476885233285704 39
4.126857635675922 8.040348924180053 -0.473640403998642 37
4.127352260076723 7.972684167779773 -0.470500246624065 43
4.132971488359878 7.915737350068228 -0.467988120724404 43
4.130799156406139 7.844711166300539 -0.464638619524855 39
4.128181690946290 7.773797288060095 -0.461289118325307 43
4.126062736490688 7.704758641503473 -0.458044289038244 40
4.132439751551625 7.649168109954218 -0.455636835051069 22
3.831392550139950 7.033111273551331 -0.419734369068409 14
3.831623632784242 6.978350086982919 -0.417222243168748 15
3.823068505275423 6.905522847475556 -0.413663398144228 15
3.825733666156732 6.853768624573043 -0.411360616069538 15
3.831023011241034 6.807302062931278 -0.409371849732307 15
3.835840063553780 6.763289195067007 -0.407487755307561 14
3.843562970655216 6.722116890966571 -0.405813004707786 12
3.851045373207725 6.680973417479065 -0.404138254108012 12
3.846246098114146 6.619137371469358 -0.401207440558407 35
nan nan nan 0
3.892362288748050 6.592124422579766 -0.401207440558407 99
3.922755890530521 6.585709877267778 -0.401730800120837 100
3.939552008414321 6.561702716672196 -0.401102768645922 100
3.971514584011167 6.568094053833585 -0.402254159683266 73
4.014165930390246 6.586595140135501 -0.404242926020498 35
4.065357371418436 6.618492896181890 -0.407069067657617 29
4.017999565643246 6.490483082770673 -0.400056049521063 66
4.096573699030872 6.568636744188932 -0.405708332795301 28
4.143922346746503 6.593189902370011 -0.408115786782476 26
4.148817629057193 6.547589792660229 -0.406231692357730 26
4.155524358098257 6.507817628642778 -0.404661613670442 56
4.152231488668486 6.455366856773315 -0.402254159683266 43
4.148667873194936 6.400609750980508 -0.399742033783605 45
4.151342701365040 6.353593165607863 -0.397753267446373 45
4.158119552559654 6.315709122347660 -0.396287860671571 49
4.160275495602010 6.273588677377131 -0.394508438159311 47
4.163285560302212 6.230797161170311 -0.392729015647050 26
3.524688371306690 5.235414745935059 -0.330763243455405 7
3.541820721443791 5.221426518320121 -0.330658571542919 7
3.528470809538577 5.162860860305540 -0.327727757993314 10
nan nan nan 0
3.506624037981257 5.056661880281291 -0.322494162369020 70
3.500232514843092 5.010008261567632 -0.320296052206816 52
3.516549807695670 4.996126392514581 -0.320191380294330 49
3.531657581171149 4.980562440698166 -0.319982036469359 100
3.551049766364795 4.969209801962261 -0.320086708381844 100
3.583543584648355 4.977856056391889 -0.321447443244161 42
3.589480646319483 4.951391822590126 -0.320505396031788 38
3.616165593665252 4.951735576795728 -0.321342771331675 29
nan nan nan 0
nan nan nan 0
4.168192211680652 5.581886317983504 -0.365095630750776 50
4.157636534902713 5.527399346827910 -0.362478832938629 47
4.162678572711564 5.496068192809937 -0.361327441901284 45
4.156398151727696 5.448157902208712 -0.359129331739081 42
4.158353006805549 5.411444611891579 -0.357663924964278 45
4.167437292513224 5.384260880234599 -0.356826549664391 49
4.159190774678251 5.335027741075517 -0.354523767589701 50
4.162986428077327 5.301626724742365 -0.353267704639871 47
4.161643944674257 5.261998296505372 -0.351592954040097 47
4.172519908733211 5.238066173155301 -0.350964922565181 50
4.175780437958707 5.204775254270632 -0.349708859615351 52
4.168817258788319 5.159097806948172 -0.347615421365633 50
4.159064968499742 5.110434596875705 -0.345312639290943 52
4.164217331931285 5.080438857879828 -0.344265920166085 50
4.169211117190218 5.050469605921226 -0.343219201041226 54
4.174046572626544 5.020527582053882 -0.342172481916367 54
4.168466266000690 4.978362863688484 -0.340288387491621 52
4.167792927430903 4.942406003334319 -0.338822980716818 54
4.170375977187074 4.914060175252834 -0.337776261591959 56
4.169336796071663 4.878217060551429 -0.336310854817157 57
4.169788496326575 4.840986100148180 -0.334845448042355 57
4.165721437388855 4.802261778833445 -0.333170697442580 56
4.164063093104943 4.766633419593361 -0.331705290667778 54
4.172760930773837 4.743071796109859 -0.331077259192863 56
4.173398304548026 4.710538034036504 -0.329821196243032 54
4.181837656371547 4.686999645404602 -0.329193164768117 54
4.169854570030979 4.644116561166758 -0.327099726518399 57
4.172644829391405 4.614718254034888 -0.326053007393540 57
4.167212646345749 4.576496641171662 -0.324378256793766 59
4.169663786752564 4.547201845332240 -0.323331537668907 57
4.177381243294238 4.523815247693434 -0.322703506193992 57
4.165945124213932 4.479953839758947 -0.320610067944274 56
4.167905863970212 4.450806216313404 -0.319563348819415 52
4.172454570864174 4.424605813841352 -0.318725973519528 56
4.179621939098547 4.401324589878949 -0.318097942044613 57
4.175634713752126 4.366499579172864 -0.316632535269810 57
4.163143095169530 4.323124417084020 -0.314539097020092 57
4.169865739924520 4.299963203788146 -0.313911065545177 17
nan nan nan 0
nan nan nan 0
2.702501348720435 2.729045103364698 -0.201284087710362 1
2.600597159670840 2.607869555850121 -0.193015006623977 20
2.605438788913972 2.594547946239160 -0.192700990886519 22
2.597437886168249 2.568585071019672 -0.191444927936689 27
2.608790920087131 2.562756831107166 -0.191654271761660 25
2.614861382718642 2.550845504677629 -0.191444927936689 27
2.609845441880555 2.527350251068604 -0.190398208811830 29
2.605695145341835 2.505765186998573 -0.189456161599457 29
2.612546041647183 2.495730993842677 -0.189351489686971 30
2.615445850164313 2.481098023289832 -0.188932802037027 31
2.621182984726837 2.469214291409109 -0.188723458212055 28
2.618117690842649 2.449134250453550 -0.187886082912168 30
2.614944292576059 2.429105828840001 -0.187048707612281 30
2.620471420707573 2.417254762203270 -0.186839363787309 31
2.621529403017878 2.401347524970595 -0.186316004224880 29
2.629895698900124 2.392182049819014 -0.186316004224880 30
2.617479827128356 2.364244828946117 -0.184850597450078 29
2.618282556295286 2.348425839742983 -0.184327237887648 29
2.630938526051385 2.343257151829119 -0.184641253625106 27
2.628629364416948 2.324797046985913 -0.183908550237705 30
2.633727007710103 2.312971389883956 -0.183699206412733 31
2.629742415402777 2.293262387812093 -0.182861831112846 30
2.628672193263776 2.276224361224379 -0.182233799637930 28
2.624486340527934 2.256617554132659 -0.181396424338043 28
2.629309508362732 2.244848937253569 -0.181187080513072 28
2.631035588116732 2.230491094401617 -0.180768392863128 28
2.638805425842880 2.221293477387412 -0.180768392863128 33
2.631218599205281 2.199260058107024 -0.179721673738269 31
2.635805593390536 2.187510959346321 -0.179512329913297 32
2.643425373386923 2.178296953756147 -0.179512329913297 32
2.644829823510068 2.163997382616844 -0.179093642263354 33
2.636865615358390 2.142158495467022 -0.178046923138495 33
2.637737357790785 2.128385736015001 -0.177628235488551 33
2.635798410218641 2.111672718123719 -0.177000204013636 33
2.640027322916448 2.099972553632158 -0.176790860188664 32
2.647341511132821 2.090744344769762 -0.176790860188664 33
2.638906311231064 2.069166855868952 -0.175744141063805 33
2.639808952944365 2.055035200997783 -0.175325453413862 32
2.643805725103096 2.043365272308049 -0.175116109588890 33
2.647753229705040 2.031692510661133 -0.174906765763918 33
2.651651495775534 2.020017117679763 -0.174697421938946 31
2.645942662733478 2.001110719003208 -0.173860046639059 30
2.649717367834796 1.989464074570539 -0.173650702814088 29
2.653443043082914 1.977815489904680 -0.173441358989116 28
2.657119721027840 1.966165165251156 -0.173232015164144 28
2.663966730161855 1.956878107985504 -0.173232015164144 29
2.651416098217716 1.933445873556310 -0.171975952214313 31
2.654913204432172 1.921836649971614 -0.171766608389342 30
2.658028171312292 1.910690541528225 -0.171557264564370 30
2.661429938033654 1.899080455114123 -0.171347920739398 29
2.661523404589961 1.885161097650627 -0.170929233089455 30
2.655016778101367 1.866669405093985 -0.170091857789567 31
2.651689357203421 1.850532238158770 -0.169463826314652 29
2.658132765180468 1.841264840875649 -0.169463826314652 31
2.654669008423866 1.825185724822184 -0.168835794839737 30
2.664323394100691 1.818159671959975 -0.169045138664709 30
2.654117168197752 1.797648071372720 -0.167998419539850 31
2.650430630496064 1.781687016882378 -0.167370388064934 30
2.656633731472627 1.772424432804067 -0.167370388064934 31
2.656143287816047 1.758729645033114 -0.166951700414991 32
2.662266217806609 1.749447259923611 -0.166951700414991 30
2.658319003435357 1.733597563774466 -0.166323668940075 30
2.654293698715493 1.717796820547833 -0.165695637465160 21
nan nan nan 0
1.876292256502659 1.195790431604573 -0.116604510509279 25
1.870326789640931 1.182828455974171 -0.115976479034364 16
1.854143396684216 1.163552959974623 -0.114720416084533 21
1.848021065374153 1.150739357851061 -0.114092384609618 29
1.850327529559425 1.143231750218909 -0.113987712697132 30
1.857712402535538 1.138853661252106 -0.114197056522103 33
1.859970031336075 1.131324184443067 -0.114092384609618 35
1.857067729657455 1.120696987630656 -0.113673696959674 37
1.857541180541173 1.112155835825820 -0.113464353134702 38
1.861412012106908 1.105665031441186 -0.113464353134702 32
1.865260162954700 1.099160754877069 -0.113464353134702 36
1.874258332283306 1.095667005364035 -0.113778368872160 30
1.846597894129742 1.071727525419352 -0.111894274447414 21
1.810517066513769 1.042355307948246 -0.109486820460238 20
1.812771357660177 1.034405892493828 -0.109382148547753 27
1.833752605311845 1.037909845649690 -0.110428867672611 28
1.840847570224014 1.033457986256316 -0.110638211497583 20
1.814779137750500 1.010508013449769 -0.108858788985323 22
1.821440829167970 1.006734050405156 -0.109068132810295 28
1.840706361183432 1.009010333044329 -0.110010180022668 31
1.844217250317389 1.002578921543410 -0.110010180022668 27
1.842431532180748 0.993291901088101 -0.109696164285210 22
1.833558141708360 0.980262977554573 -0.108963460897809 18
1.831674869390573 0.971050189696380 -0.108649445160351 19
1.822845389392561 0.957827052873008 -0.107916741772950 24
1.835034066371471 0.956072549380304 -0.108440101335380 22
1.829322832829221 0.945397244619838 -0.107916741772950 23
1.814836650574742 0.929898236362370 -0.106870022648091 26
1.825356048761131 0.926857285612912 -0.107288710298035 29
1.826796283018028 0.919581927979710 -0.107184038385549 24
1.811966193151927 0.904597913072249 -0.106137319260690 27
1.827643154447421 0.904468517009119 -0.106870022648091 29
1.809271603296738 0.887528003513638 -0.105613959698261 32
1.814154824371914 0.882080406844218 -0.105718631610747 36
1.819175007160674 0.876292029949716 -0.105823303523232 35
1.824025150532290 0.870797056865574 -0.105927975435718 37
1.837886021038003 0.869549763420333 -0.106556006910634 37
1.830059961246707 0.858041841789660 -0.105927975435718 37
1.836666553340540 0.853331612739347 -0.106137319260690 37
1.846890985982223 0.850256139812511 -0.106556006910634 37
1.857116238594882 0.847119643893866 -0.106974694560577 35
1.865521988146606 0.843099545951793 -0.107288710298035 31
1.811802638459442 0.811597233913214 -0.104043881010972 25
1.803671134940092 0.800407145800595 -0.103415849536057 28
1.799140509388093 0.790891277055297 -0.102997161886113 24
1.794565516951919 0.781416829861291 -0.102578474236170 32
1.797417499057456 0.774834169810172 -0.102578474236170 38
1.789090135436372 0.763849850759329 -0.101950442761255 37
1.788066420236761 0.756044460074228 -0.101741098936283 36
1.792536892798631 0.750569734878811 -0.101845770848769 41
1.798835869089200 0.745837964739681 -0.102055114673740 39
1.805123607995346 0.741071346353258 -0.102264458498712 41
1.802148666395602 0.732509584530698 -0.101950442761255 38
1.800988884262137 0.724723248938144 -0.101741098936283 37
1.814640431640387 0.722866976002394 -0.102369130411198 36
1.815294623565286 0.715795648340316 -0.102264458498712 30
1.826836009111720 0.713723237866746 -0.102787818061142 23
1.829316238431930 0.707342041919950 -0.102787818061142 21
1.844831631519195 0.705948831704713 -0.103520521448543 18
1.858491597972428 0.703748576687612 -0.104148552923458 13
1.890985050880272 0.708139086464492 -0.105823303523232 3
nan nan nan 0
2.702242265714804 0.990484920136059 -0.150832225892164 40
2.677518598677353 0.970834159446738 -0.149262147204876 30
2.705331231415583 0.970247224023453 -0.150622882067192 33
2.704936844604274 0.959462575724416 -0.150413538242221 34
2.704500176376253 0.948692519186422 -0.150204194417249 33
2.707795254520383 0.939246272058803 -0.150204194417249 33
2.699721907651144 0.925900962753530 -0.149576162942333 33
2.702937457527405 0.916471533750360 -0.149576162942333 33
2.709907504836328 0.908300400304992 -0.149785506767305 34
2.720645235328702 0.901347992432831 -0.150204194417249 33
2.700997739731200 0.884387734028074 -0.148948131467418 33
2.704068373624054 0.874954104452645 -0.148948131467418 33
2.710910846450039 0.866726271762851 -0.149157475292390 34
2.713919769940603 0.857258146587095 -0.149157475292390 34
2.708973986222982 0.846345505699546 -0.148738787642446 35
2.704277967176851 0.834528504114779 -0.148320099992503 35
2.676891178051306 0.814832965933863 -0.146645349392729 55
2.706497231844581 0.813532997440857 -0.148110756167531 28
nan nan nan 0
nan nan nan 0
nan nan nan 0
nan nan nan 0
3.631172658056835 1.024096604713288 -0.197725242685842 3
3.640497759422350 1.013021478431728 -0.198039258423299 10
3.648038421532933 1.000728318139403 -0.198248602248271 10
3.634157972777785 0.983293421230677 -0.197306555035898 10
3.641258018408791 0.972267202507042 -0.197515898860870 10
3.648492563049531 0.960567928767708 -0.197725242685842 8
3.673088592731654 0.953345831534147 -0.198876633723187 10
3.715092897342339 0.950418746809905 -0.200970071972904 10
3.739855603371801 0.942162926525521 -0.202121463010249 11
3.803213123978098 0.944018336468531 -0.205366292297312 11
3.841243081890042 0.939946202202791 -0.207250386722058 11
3.891100712800159 0.937762726463746 -0.209762512621719 12
3.937265769143356 0.933632997444554 -0.212065294696408 12
3.985234983381056 0.930326591745016 -0.214472748683584 11
4.101357404406188 0.942350205106421 -0.220543719607765 19
4.209818596313324 0.951812352522655 -0.226196002882003 55
4.242194843880008 0.944356669190431 -0.227766081569292 63
nan nan nan 0
3.817177268712259 0.821816763954269 -0.204633588909910 11
3.825884616412234 0.809727967436917 -0.204947604647368 11
3.813182892794241 0.792448888179582 -0.204110229347481 11
3.823753364564808 0.780731790752223 -0.204528916997424 11
3.830371867132550 0.768165089049824 -0.204738260822396 11
3.813433660227270 0.750931071994311 -0.203691541697537 11
3.819824661079704 0.739039909267736 -0.203900885522509 11
3.822381120105880 0.725701730424597 -0.203900885522509 11
3.824766617017422 0.713022267697326 -0.203900885522509 11
3.825267529149448 0.699307824747509 -0.203796213610023 12
3.806059923683276 0.682075460060353 -0.202644822572678 12
3.812351939260491 0.669476570457764 -0.202854166397650 12
3.812697270731612 0.655826321705468 -0.202749494485164 12
3.814963303553100 0.642513529063187 -0.202749494485164 13
3.825065522053968 0.630492221809218 -0.203168182135108 12
3.807525153931230 0.613956933645642 -0.202121463010249 15
3.815563728243536 0.601595638827671 -0.202435478747707 16
3.827510247853466 0.589794042466095 -0.202958838310136 17
3.821645652068636 0.575240816871890 -0.202540150660193 17
3.827582407164151 0.562478051886020 -0.202749494485164 17
3.813801583996511 0.546180349364391 -0.201912119185277 20
3.805794555729598 0.531483176663687 -0.201388759622848 20
3.799710528428680 0.517117907560203 -0.200970071972904 21
3.813372121577856 0.505425827455470 -0.201598103447820 21
3.813132306638316 0.491856085780457 -0.201493431535334 21
3.802935607201516 0.477051211650702 -0.200865400060418 22
3.808542824821564 0.464256931958588 -0.201074743885390 22
3.812123595974221 0.451194560778160 -0.201179415797876 23
3.809630485617483 0.438094274357822 -0.200970071972904 23
3.811136510443661 0.424793513291482 -0.200970071972904 26
3.796781741760710 0.409110387493270 -0.200132696673017 27
3.790240674997913 0.395026505681960 -0.199714009023074 26
3.799545322973584 0.382594096127931 -0.200132696673017 26
3.784954507267737 0.367783567866243 -0.199295321373130 12
3.825923828532974 0.358961593713253 -0.201388759622848 31
3.785381063732373 0.341832250532060 -0.199190649460644 30
3.788540999061110 0.328789405717140 -0.199295321373130 33
3.783694495401230 0.315065716125937 -0.198981305635672 33
3.792734976409393 0.302491390618862 -0.199399993285616 28
4.070583362235928 0.310355844125323 -0.213949389121154 6
3.384402935347173 0.246159636409676 -0.177837579313523 1
3.337421798861063 0.231034027520208 -0.175325453413862 3
nan nan nan 0
nan nan nan 0
3.383522311038246 0.198647881095246 -0.177628235488551 1
3.312403108036371 0.182872452965602 -0.173860046639059 3
3.348923970640830 0.173165342228184 -0.175744141063805 2
3.437285486433430 0.165705970271483 -0.180349705213184 1
4.553196547247607 0.203574260268858 -0.238861304292796 6
3.438358558722161 0.141705347434678 -0.180349705213184 1
3.287126729014367 0.124555030189000 -0.172394639864257 1
4.545071009121202 0.156334724702105 -0.238337944730366 4
4.553574253490353 0.140715274381238 -0.238756632380310 5
4.556034208823349 0.124874198067264 -0.238861304292796 6
nan nan nan 0
3.240875644750698 0.066189022585471 -0.169882513964596 1
4.559075485203427 0.077987065808316 -0.238965976205282 5
4.599261415359376 0.062616227042884 -0.241059414454999 5
nan nan nan 0
3.329361446942252 0.021500376989399 -0.174488078113975 2
3.221562981276789 0.010120871891412 -0.168835794839737 1
3.241551272326740 -0.001131514897443 -0.169882513964596 1
4.483810484158127 -0.017999265558048 -0.234988443530818 5
4.569600059486146 -0.034295107489962 -0.239489335767711 6
3.361183815725765 -0.036959635857998 -0.176162828713749 1
3.281152344645444 -0.047534861814088 -0.171975952214313 4
4.590956674330831 -0.082540020716769 -0.240640726805056 5
nan nan nan 0
4.582282014412224 -0.114389301503260 -0.240222039155112 5
nan nan nan 0
3.168033547952572 -0.101219909299471 -0.166114325115104 1
3.313369334271443 -0.117442430421234 -0.173755374726574 5
3.316930690514677 -0.129162963039373 -0.173964718551545 5
3.238636560088683 -0.137437851794952 -0.169882513964596 1
3.118427762477565 -0.143243186996921 -0.163602199215442 1
3.109929458883936 -0.153733218007761 -0.163183511565499 1
3.117351750618381 -0.165010252191742 -0.163602199215442 1
3.096815903151905 -0.174765493956825 -0.162555480090584 1
3.104161715895629 -0.186052310432259 -0.162974167740527 1
3.087547344537350 -0.195875102494983 -0.162136792440640 1
3.134671965291110 -0.209853290913769 -0.164648918340301 1
3.078135365610134 -0.216863841068697 -0.161718104790696 2
3.049474157174451 -0.225544757207514 -0.160252698015894 3
3.024772774816548 -0.234336789186569 -0.158996635066063 11
nan nan nan 0
nan nan nan 0
3.004246893029817 -0.264422678639874 -0.158054587853690 80
3.039106576433696 -0.278184893530360 -0.159938682278436 82
3.040105311139691 -0.288980660182587 -0.160043354190922 68
3.051003806806391 -0.300766481977513 -0.160671385665838 35
nan nan nan 0
3.156084974617624 -0.333388767272061 -0.166323668940075 1
3.587801416216783 -0.391027168431511 -0.189142145861999 7
3.796796439021991 -0.427221016397694 -0.200237368585503 30
3.819089338153199 -0.443234728166328 -0.201493431535334 25
3.799670752743804 -0.454428556529496 -0.200551384322961 37
3.809955072474821 -0.469153693774872 -0.201179415797876 33
3.830089857357729 -0.485211221192236 -0.202330806835221 40
3.836294957140942 -0.499609491804334 -0.202749494485164 38
3.842446110144246 -0.514056981671558 -0.203168182135108 37
3.832805377605505 -0.525710547625150 -0.202749494485164 37
3.830946954576455 -0.539086332332207 -0.202749494485164 38
3.832898852658100 -0.553694947822371 -0.202958838310136 36
3.846748594660826 -0.569410530981977 -0.203796213610023 37
3.840788148722222 -0.582236020086402 -0.203586869785051 37
3.830837801061139 -0.594414360298418 -0.203168182135108 36
3.832790818632796 -0.607740176834226 -0.203377525960080 36
3.838532103233763 -0.622394083970920 -0.203796213610023 36
3.844217689728968 -0.637095462296084 -0.204214901259967 35
3.845908853990277 -0.651177252996942 -0.204424245084939 36
3.835624353514579 -0.663906281986775 -0.204005557434995 35
3.841150700309399 -0.678681092659922 -0.204424245084939 35
3.846620539689838 -0.693502556985069 -0.204842932734882 35
3.832390402674215 -0.704758168164051 -0.204214901259967 31
3.837759182043141 -0.719603748554306 -0.204633588909910 32
3.848956174800716 -0.735620180834845 -0.205366292297312 32
3.828721056182310 -0.745615049450899 -0.204424245084939 32
3.851563166675416 -0.764027299994804 -0.205784979947255 31
3.850830466231638 -0.777862566009769 -0.205889651859741 32
3.863742360554558 -0.794518034721702 -0.206727027159628 33
3.849215981323024 -0.805545487918083 -0.206098995684713 31
3.852241059375739 -0.820224657746473 -0.206413011422170 31
3.855210487773361 -0.834934746674267 -0.206727027159628 31
3.863975640790171 -0.850964233701310 -0.207355058634543 31
3.868928826379352 -0.865517074797372 -0.207773746284487 31
3.861988939872277 -0.878131224325746 -0.207564402459515 31
3.862792143321484 -0.892505981968032 -0.207773746284487 28
3.877152869574819 -0.910091942329302 -0.208715793496860 27
3.877999348925473 -0.923869761778500 -0.208925137321832 26
3.882515847229375 -0.939279436035387 -0.209343824971775 27
3.906200467855873 -0.960177781836767 -0.210809231746578 22
3.991966012644721 -0.996048986877160 -0.215624139720929 16
3.959422612762493 -1.002623275462941 -0.214054061033640 15
3.936554434414592 -1.011467773675350 -0.213007341908781 13
3.909807633925388 -1.019157329148940 -0.211751278958951 16
3.871469952341714 -1.023609384956452 -0.209867184534205 31
3.881558683462266 -1.040060514607726 -0.210599887921606 38
3.883686710808659 -1.055174325659756 -0.210913903659064 39
3.887495040364835 -1.071524543344401 -0.211332591309007 39
3.902966951756740 -1.090462288203647 -0.212379310433866 39
3.883763120443517 -1.099726345034348 -0.211541935133979 38
3.879900697906873 -1.113276508357886 -0.211541935133979 37
3.872351696410385 -1.125022166518613 -0.211332591309007 35
3.879897035717920 -1.141915796640168 -0.211960622783922 37
3.879715404972564 -1.156593395142716 -0.212169966608894 34
3.871830473949320 -1.168974540093340 -0.211960622783922 34
3.863906426106233 -1.181314744745955 -0.211751278958951 34
3.871206958116375 -1.198338731716117 -0.212379310433866 33
3.870812120910282 -1.213038988942427 -0.212588654258838 33
3.881784391984506 -1.231374542554895 -0.213426029558725 31
3.869855847275965 -1.242474785899893 -0.213007341908781 31
3.869294236925632 -1.257209908097611 -0.213216685733753 30
3.872471543498848 -1.273203861143555 -0.213635373383697 30
3.871793942657432 -1.287974418427307 -0.213844717208668 30
3.874846240848058 -1.304029832144984 -0.214263404858612 31
3.870270720379677 -1.317547625063386 -0.214263404858612 30
3.867536487434457 -1.331699608029001 -0.214368076771098 30
3.866636754498222 -1.346505380358277 -0.214577420596070 28
3.875100036769426 -1.364638140878311 -0.215310123983471 30
3.875957550650916 -1.380166401533440 -0.215624139720929 30
3.867600841201429 -1.391659512541445 -0.215414795895957 30
3.862719480206612 -1.405151480425315 -0.215414795895957 30
3.876536393588458 -1.425519555004100 -0.216461515020816 30
3.871536784550056 -1.439042507499589 -0.216461515020816 30
3.877708058156530 -1.456762281400157 -0.217089546495731 30
3.872599384512836 -1.470289133426848 -0.217089546495731 30
3.874902431940216 -1.486659783212900 -0.217508234145675 28
3.873413850026599 -1.501620525520582 -0.217717577970646 28
3.879306739064978 -1.519502688079521 -0.218345609445562 28
3.892550378935985 -1.540383898127271 -0.219392328570421 28
3.876022383965561 -1.549513685423344 -0.218764297095505 27
3.881701699277420 -1.567521267476532 -0.219392328570421 27
3.894699731342611 -1.588604616929897 -0.220439047695279 27
3.896517501580899 -1.605233073610161 -0.220857735345223 13
nan nan nan 0
4.603336488474170 -1.934119144723435 -0.261679781214719 49
4.614943336073810 -1.957976708453718 -0.262726500339578 58
4.624603604280561 -1.981152291043544 -0.263668547551951 60
4.632324974865036 -2.003626198675279 -0.264505922851838 61
4.639945618940937 -2.026178073960128 -0.265343298151725 60
4.629189565167333 -2.040750831436543 -0.265133954326753 58
4.625687270194859 -2.058521365563934 -0.265343298151725 58
4.630130430041625 -2.077949819562345 -0.265971329626641 58
4.637403246910020 -2.100692324097899 -0.266808704926528 58
4.636937756806306 -2.120998293295138 -0.267227392576471 58
4.633132559546729 -2.138845547881128 -0.267436736401443 58
4.627824990737968 -2.155040939272041 -0.267541408313929 57
4.627504775952329 -2.174579714682681 -0.267960095963872 57
4.630713741391359 -2.195853971257688 -0.268588127438788 55
4.633830437554065 -2.217177064597517 -0.269216158913703 57
4.626062814414958 -2.233338643570856 -0.269216158913703 55
4.616443241413792 -2.248598409313881 -0.269111487001217 61
4.624698713171701 -2.272626872376273 -0.270053534213590 57
4.620316456064804 -2.290530467505522 -0.270262878038562 57
4.626583469408742 -2.313791272615919 -0.271100253338449 54
4.618478643898695 -2.329926966342828 -0.271100253338449 58
4.614287340585120 -2.347040570804630 -0.271309597163421 55
4.630944974032106 -2.375896976872792 -0.272775003938223 57
4.624397171163179 -2.392965416767574 -0.272879675850709 58
4.635492850350235 -2.419257945885896 -0.274031066888054 54
4.616415499662765 -2.429842528786641 -0.273403035413139 57
4.618490417211182 -2.451560572473922 -0.274031066888054 55
4.627080829495229 -2.477900564784627 -0.275077786012913 55
4.628947452057345 -2.499731143202240 -0.275705817487828 54
4.626769960007085 -2.520502131488576 -0.276124505137772 52
4.623195219481829 -2.539521944527488 -0.276438520875229 52
4.617796827591075 -2.557579797004705 -0.276647864700201 52
4.621047615726313 -2.580499748815634 -0.277380568087602 54
4.626843736096807 -2.602838415599205 -0.278217943387489 54
4.628153715812616 -2.624885160366624 -0.278845974862405 55
4.615495270506322 -2.639041688904871 -0.278636631037433 55
4.616637419796465 -2.661121226552243 -0.279264662512348 60
4.621135300300548 -2.685247732468942 -0.280102037812235 60
4.625520830298564 -2.709437966559543 -0.280939413112123 60
4.636672956763644 -2.737753386502672 -0.282195476061953 61
4.621939328852365 -2.750857263242331 -0.281881460324495 84
4.595931652282927 -2.759331312782891 -0.280939413112123 50
4.565766847610111 -2.762948844424454 -0.279683350162292 42
4.540748413282839 -2.769509547428780 -0.278741302949919 37
4.507232573366211 -2.770699660191790 -0.277275896175116 37
4.461145750507209 -2.761717650168709 -0.274973114100427 34
3.809259000331683 -2.376593070143556 -0.235302459268275 6
3.775577791363795 -2.373928709045079 -0.233732380580987 27
3.780764938250857 -2.395645531233488 -0.234569755880874 27
3.739979044938440 -2.389058146367362 -0.232580989543642 26
3.713143539563470 -2.390206977550957 -0.231429598506298 31
3.685928410530080 -2.391841069053729 -0.230278207468953 30
3.664183937103142 -2.395948450949828 -0.229440832169066 13
nan nan nan 0
2.972494662648770 -1.971930883180455 -0.186944035699795 9
nan nan nan 0
nan nan nan 0
2.918282783539914 -1.981029997732714 -0.184850597450078 20
2.901458583118533 -1.984439501882917 -0.184222565975162 18
2.883348335736107 -1.986119292775574 -0.183489862587761 19
2.851785273070939 -1.979091192573327 -0.181919783900473 18
2.828490999374628 -1.977589340812545 -0.180873064775614 19
2.813406425159070 -1.981699843746065 -0.180349705213184 19
2.803214204146930 -1.989196716231911 -0.180140361388213 19
2.793003965360646 -1.996646608290602 -0.179931017563241 20
2.764947994595400 -1.991210496486744 -0.178570282700924 13
nan nan nan 0
1.714121431246091 -1.252710478170290 -0.111266242972499 2
1.695262536321898 -1.248029448680329 -0.110324195760126 8
1.687468777427703 -1.251854562075784 -0.110114851935154 12
1.667089766791948 -1.245781622862869 -0.109068132810295 13
1.664763938417993 -1.252213371615227 -0.109172804722781 15
1.660382755728591 -1.258016853300499 -0.109172804722781 15
1.654173242680208 -1.262882031547730 -0.109068132810295 16
1.654504658078080 -1.272301018618240 -0.109382148547753 15
1.634484339607631 -1.265552993086091 -0.108335429422894 15
1.626906909254407 -1.268794174889506 -0.108126085597922 15
1.625386461916715 -1.277216615985566 -0.108335429422894 15
1.620918241518029 -1.282882492298441 -0.108335429422894 15
1.618217123149243 -1.289495283732733 -0.108440101335380 13
1.618378979950753 -1.298886453572161 -0.108754117072837 14
1.602962353731897 -1.295738811143549 -0.108021413685436 12
1.601527347234642 -1.303848250061445 -0.108230757510408 10
1.609321949208185 -1.319561671996441 -0.109068132810295 9
1.624726339411787 -1.341704060963563 -0.110428867672611 11
1.632317630420731 -1.357584242908127 -0.111266242972499 20
1.627568832424340 -1.363273823887063 -0.111266242972499 40
1.615167088231650 -1.362507721397320 -0.110742883410069 33
1.611923326919663 -1.369430541360627 -0.110847555322555 31
1.608650897059794 -1.376347301614059 -0.110952227235041 27
1.581140944914760 -1.362398200928471 -0.109382148547753 25
1.561290720358655 -1.354819073254325 -0.108335429422894 25
1.555048092342946 -1.358946479310089 -0.108230757510408 28
1.561029952497744 -1.373330423311907 -0.108963460897809 34
1.556226624383370 -1.378771067925894 -0.108963460897809 34
1.545443126322599 -1.378876200208996 -0.108544773247865 34
1.543591837658165 -1.386932147127175 -0.108754117072837 33
1.547382602625375 -1.400622228394007 -0.109382148547753 33
1.545436214140409 -1.408706006526159 -0.109591492372724 33
1.543699462307695 -1.416523824875960 -0.109800836197696 34
1.538745466668300 -1.421903711640856 -0.109800836197696 35
1.524999951327679 -1.419102690843597 -0.109172804722781 34
1.528781288597098 -1.432611443485526 -0.109800836197696 33
1.519163172093932 -1.434092009844212 -0.109486820460238 36
1.521385802682823 -1.446266572830376 -0.110010180022668 35
1.510809488779367 -1.445780202317678 -0.109591492372724 32
1.500000929511743 -1.445501473597612 -0.109172804722781 30
1.493512735662350 -1.449337728350310 -0.109068132810295 25
1.482730705399684 -1.448958575436615 -0.108649445160351 22
1.462004611840400 -1.438715636711149 -0.107498054123007 26
1.462648328321008 -1.449433628871937 -0.107916741772950 34
1.451924935464672 -1.448887210978023 -0.107498054123007 34
1.452493811165217 -1.459609435901211 -0.107916741772950 33
1.461428674374785 -1.478877004319267 -0.108963460897809 33
1.461853136836270 -1.489671424140584 -0.109382148547753 33
1.448280799078675 -1.486182784532152 -0.108754117072837 34
1.440306396643048 -1.488358665103840 -0.108544773247865 32
1.432334484417734 -1.490497017601693 -0.108335429422894 32
1.429880678134331 -1.498377548716836 -0.108544773247865 32
1.427389274418409 -1.506259075091332 -0.108754117072837 32
1.419385269258621 -1.508323403522003 -0.108544773247865 32
1.409183072519775 -1.506939885243268 -0.108126085597922 32
1.409350545995036 -1.517703881099360 -0.108544773247865 31
1.406752080758120 -1.525550761299803 -0.108754117072837 32
1.412208861026766 -1.542235986364280 -0.109591492372724 30
1.396067532239839 -1.535334487154338 -0.108754117072837 30
1.394715204248148 -1.544645474354657 -0.109068132810295 25
1.391439517453238 -1.552964424051539 -0.109277476635267 21
1.395303354587102 -1.568257092752767 -0.110010180022668 18
1.402275767193944 -1.586099705570939 -0.110952227235041 16
1.392777691444949 -1.586482110951742 -0.110638211497583 15
1.395105889498280 -1.600367264180944 -0.111266242972499 11
1.406504145606289 -1.624858532997909 -0.112626977834815 9
1.445087709832718 -1.681256186741608 -0.116185822859335 7
1.782805460848974 -2.088873046795415 -0.143923879668096 20
1.760007772195887 -2.076799108215071 -0.142667816718265 14
1.752747667880021 -2.082930029265023 -0.142667816718265 15
1.742904994551097 -2.085970221136857 -0.142458472893293 15
1.733062484606819 -2.088967115520909 -0.142249129068321 15
1.725760070178942 -2.095003905832940 -0.142249129068321 15
1.708320739003214 -2.088647162300911 -0.141411753768434 15
1.691310322993657 -2.081899189551038 -0.140574378468547 15
1.686540701814621 -2.090899424807379 -0.140783722293519 15
1.674237827800292 -2.090538053471419 -0.140365034643575 15
1.669416388510767 -2.099496074273503 -0.140574378468547 15
1.649701751809073 -2.089634456634975 -0.139527659343688 15
1.638701197297959 -2.090664475091140 -0.139213643606231 16
1.633846656068060 -2.099524311607508 -0.139422987431202 16
1.624065790409400 -2.102053726681545 -0.139213643606231 16
1.616718359228917 -2.107709967800607 -0.139213643606231 16
1.597250843666142 -2.097450748739325 -0.138166924481372 16
1.587510674086530 -2.099827032305462 -0.137957580656400 16
1.576574490339493 -2.100563525687136 -0.137643564918942 17
1.569232550264472 -2.106054000311214 -0.137643564918942 17
1.561871489586045 -2.111518813331927 -0.137643564918942 17
1.543852293371344 -2.102469212927686 -0.136701517706569 16
1.532974412275153 -2.103003542701789 -0.136387501969112 17
1.523282510339082 -2.105105675005303 -0.136178158144140 17
1.511264240369403 -2.103921519912715 -0.135759470494196 17
1.506598704234792 -2.112173483862223 -0.135968814319168 17
1.489983613109792 -2.104379321047625 -0.135131439019281 17
1.474589839781940 -2.098129115253021 -0.134398735631880 16
1.470685189315001 -2.108177779160951 -0.134712751369337 18
1.459170269814788 -2.108881955811939 -0.134398735631880 16
1.452930693631260 -2.115608950837355 -0.134503407544366 17
1.437273093009447 -2.106963561131297 -0.133666032244479 17
1.424310954730368 -2.103698489077308 -0.133142672682049 17
1.420300883664670 -2.113630694368687 -0.133456688419507 17
1.410697946601313 -2.115252336865119 -0.133247344594535 17
1.401101021284010 -2.116832732765662 -0.133038000769563 17
