# This PCD file was generated using the MATLAB® pcwrite function
# from Computer Vision Toolbox®.
# .PCD v.7 - Point Cloud Data file format
VERSION .7
FIELDS x y z intensity
SIZE 8 8 8 1
TYPE F F F U
COUNT 1 1 1 1
WIDTH 889
HEIGHT 1
VIEWPOINT 0 0 0 1 0 0 0
POINTS 889
DATA ascii
3.798333221474542 0.486577707668085 -0.335026675121998 23
3.805939888784230 0.474054872849977 -0.335549609578484 26
3.797681666003588 0.459569978467501 -0.334678052151007 26
3.787390031798561 0.444916074491267 -0.333632183238036 27
3.796838332765870 0.432595085066685 -0.334329429180017 28
3.794364525237601 0.418901743494113 -0.333980806209026 30
3.799765865386441 0.406077826319295 -0.334329429180017 30
3.783323673945001 0.390968469415969 -0.332760625810559 26
3.782682821117360 0.377561939749333 -0.332586314325064 26
3.781994496007836 0.364164650308925 -0.332412002839568 21
3.791116671533990 0.352358640015012 -0.333109248781550 33
3.798276948083638 0.339655401788741 -0.333632183238036 33
3.787528957868635 0.325371690271612 -0.332586314325064 36
3.780698997145229 0.311494364752992 -0.331889068383082 32
3.785735722500657 0.298608700184947 -0.332237691354073 18
4.410596062011932 0.332408540286753 -0.386971497799602 13
3.368415101518272 0.242041924177292 -0.295457967914561 3
3.383153727238958 0.231233505752727 -0.296678148313028 1
3.483350972749917 0.225868711525476 -0.305393722587794 1
nan nan nan 0
3.369477129312454 0.194872874680341 -0.295283656429066 1
3.334326643894292 0.181164338287284 -0.292146049690150 2
3.442389004206004 0.174986261466643 -0.301558869906897 2
3.387254334888011 0.160331366537964 -0.296678148313028 1
4.566156267134602 0.200161157991522 -0.399870547726256 3
3.340512616927362 0.134752820430427 -0.292494672661141 1
3.289195638923565 0.121184177347804 -0.287962574038263 1
3.289598611738299 0.109702003640369 -0.287962574038263 1
4.582422430897430 0.137604115565168 -0.401090728124723 7
4.564949646266498 0.121131988719876 -0.399521924755265 7
3.242749177109297 0.074720798148808 -0.283779098386375 1
3.290798455437775 0.064335694926033 -0.287962574038263 1
3.291002980251984 0.052848272685274 -0.287962574038263 1
4.574164868290567 0.057483676837442 -0.400219170697246 4
4.614183803223443 0.041878153642973 -0.403705400407153 1
3.327238397971447 0.018582998033012 -0.291100180777178 4
3.239618052903906 0.006785050104483 -0.283430475415384 1
3.291424074092173 -0.004595697960302 -0.287962574038263 1
4.532631751610167 -0.022150793732297 -0.396558629501845 7
3.223572918332001 -0.027006373136183 -0.282035983531422 1
3.251350496490282 -0.038589616349111 -0.284476344328356 4
3.163541191531476 -0.048592325604388 -0.276806638966562 1
3.191240795627114 -0.060160597140580 -0.279246999763497 1
3.091416742280037 -0.069074404620798 -0.270531425488731 1
3.091156793643085 -0.079865042022374 -0.270531425488731 1
3.154588235498713 -0.092523875495546 -0.276109393024581 1
3.206020288758741 -0.105234315853769 -0.280641491647459 1
3.329080173102813 -0.120908212489917 -0.291448803748169 6
3.296784849073263 -0.131259922481927 -0.288659819980244 4
3.228628789169506 -0.139835841962608 -0.282733229473403 1
3.136571330271006 -0.146819662216177 -0.274714901140619 1
3.128080233255726 -0.157367019906472 -0.274017655198637 1
3.127511862509740 -0.168285098865882 -0.274017655198637 1
3.126905384018692 -0.179201127324470 -0.274017655198637 1
3.126260805172330 -0.190114972273873 -0.274017655198637 1
3.109671883779736 -0.200003465105200 -0.272623163314675 1
3.124894320435972 -0.211390186022068 -0.274017655198637 1
3.100289016012154 -0.220599892691298 -0.271925917372694 1
3.059722990727528 -0.228987672377568 -0.268439687662787 3
3.045000919915779 -0.238577309586382 -0.267219507264320 11
nan nan nan 0
nan nan nan 0
3.026506033773408 -0.268511245073998 -0.265825015380357 64
3.029518250946124 -0.279440085583918 -0.266173638351348 37
3.038440948885344 -0.290962993434185 -0.267045195778825 29
3.057233202339055 -0.303535814332224 -0.268788310633778 13
3.060118923524266 -0.314613230584014 -0.269136933604768 5
3.237311781564941 -0.344254508966482 -0.284824967299347 2
nan nan nan 0
3.840617715321699 -0.435546189548966 -0.338164281860914 41
3.829179456481952 -0.447792706618648 -0.337292724433437 37
3.829571123823408 -0.461394632875161 -0.337467035918932 42
3.820028263728836 -0.473778611665550 -0.336769789976951 42
3.818351194828089 -0.487110112309096 -0.336769789976951 42
3.820578560772021 -0.500953727025412 -0.337118412947942 43
3.822755757512457 -0.514818820628624 -0.337467035918932 43
3.828829909590337 -0.529250830797596 -0.338164281860914 42
3.821041174815259 -0.541773625132627 -0.337641347404428 42
3.821098423866872 -0.555394828685749 -0.337815658889923 42
3.828989747909633 -0.570196878197429 -0.338687216317400 42
3.830915306384923 -0.584159751252795 -0.339035839288390 41
3.828852869075473 -0.597528582287521 -0.339035839288390 41
3.824776300881097 -0.610576050294640 -0.338861527802895 42
3.820655321698382 -0.623602343068887 -0.338687216317400 41
3.830246687864246 -0.638901980670608 -0.339733085230372 41
3.831921329868919 -0.652937480500591 -0.340081708201362 41
3.841396210142918 -0.668358536140395 -0.341127577114334 41
3.831193014883834 -0.680369952542879 -0.340430331172353 41
3.832715676360507 -0.694449601190318 -0.340778954143343 41
3.842023543622417 -0.709996394775048 -0.341824823056315 40
3.843690206997251 -0.722799367367761 -0.342173446027306 40
3.848970837924920 -0.737712123658033 -0.342870691969287 38
3.846241135033165 -0.751814351929581 -0.342870691969287 40
3.851409533874862 -0.766791806435890 -0.343567937911268 37
3.848573232237409 -0.780902777652314 -0.343567937911268 38
3.853628743735126 -0.795944086381023 -0.344265183853250 38
3.868658557248543 -0.811728908385838 -0.345833987222708 36
3.861904548049738 -0.824396218356566 -0.345485364251717 36
3.862750947359836 -0.839391429520418 -0.345833987222708 36
3.867579240857002 -0.854589328352127 -0.346531233164689 35
3.868612107626051 -0.868282630332089 -0.346879856135680 36
3.879155105753513 -0.884883060110984 -0.348100036534147 32
3.858418104078742 -0.895042925539756 -0.346531233164689 32
3.870784480675756 -0.912161824463776 -0.347925725048651 32
3.883078169626995 -0.929377918076615 -0.349320216932614 34
3.889490543855320 -0.945279339894076 -0.350191774360090 31
3.936630515274663 -0.970572593959004 -0.354723872982969 22
3.977672669106266 -0.995432943749917 -0.358733037149361 20
3.954687510115186 -1.005097454339221 -0.356989922294408 20
3.928003673290323 -1.012925674113714 -0.354898184468464 20
3.909023760038723 -1.022596881856110 -0.353503692584502 23
3.905430415675417 -1.036235691166087 -0.353503692584502 41
3.886762598881380 -1.044363734873484 -0.352109200700539 46
3.883093409644396 -1.057924705618643 -0.352109200700539 46
3.884763550275439 -1.074420185823945 -0.352632135157025 45
3.884826322127632 -1.089049600016299 -0.352980758128016 46
3.888667337043342 -1.104781521953236 -0.353678004069997 45
3.880957975841730 -1.117246408901212 -0.353329381099006 44
3.873406128114208 -1.128994929607155 -0.352980758128016 45
3.873263272968017 -1.143637165682053 -0.353329381099006 44
3.876680635739793 -1.160110510178277 -0.354026627040987 44
3.891674967547320 -1.179414192604473 -0.355769741895941 44
3.868901286883413 -1.185795926666075 -0.354026627040987 41
3.868544265383492 -1.200474676512353 -0.354375250011978 44
3.875522507372956 -1.218230324309723 -0.355421118924950 44
3.878840881074622 -1.234167383100348 -0.356118364866931 42
3.878520081037739 -1.248244073716662 -0.356466987837922 42
3.866561488306661 -1.259307010976702 -0.355769741895941 44
3.867596437837505 -1.275342041494857 -0.356292676352427 41
3.872571005459386 -1.291987429421702 -0.357164233779903 42
3.882910881179044 -1.311272179630030 -0.358558725663866 42
3.880195451598034 -1.325462132788231 -0.358733037149361 39
3.862595805302882 -1.333769920981275 -0.357512856750894 41
3.871083497858149 -1.351842875732203 -0.358733037149361 41
3.873617035759669 -1.368677073625971 -0.359430283091342 37
3.880073327930255 -1.386212073861858 -0.360476152004314 39
3.879447532533126 -1.399747235784611 -0.360824774975305 39
3.878281382789879 -1.414645995477791 -0.361173397946295 37
3.876808881293317 -1.430230305341464 -0.361522020917286 38
3.882993770576466 -1.447930904058752 -0.362567889830258 37
3.881899919140824 -1.462204029029684 -0.362916512801249 37
3.887944478964714 -1.479998349047968 -0.363962381714221 35
3.875056171498157 -1.491375911320289 -0.363265135772239 33
3.866112844702561 -1.503449060248485 -0.362916512801249 34
3.884948352512635 -1.526406890261632 -0.365182562112688 31
3.877744693653739 -1.539223527566529 -0.365008250627192 35
3.892962394762661 -1.560227336174317 -0.366925676967641 31
3.878258518889957 -1.570068546982953 -0.366054119540164 33
3.883542102995796 -1.588799022134863 -0.367099988453136 28
3.918483133471874 -1.619084085626599 -0.370934841134033 49
4.624731046855716 -1.928878944709106 -0.438393386020721 78
4.628986852826553 -1.949650701428912 -0.439439254933692 80
4.618828933890317 -1.963431357695052 -0.439090631962702 71
4.615608868531207 -1.981113806412794 -0.439439254933692 78
4.626946471192172 -2.005135523925999 -0.441182369788646 78
4.627220387040625 -2.024468793278219 -0.441879615730627 77
4.631060689812621 -2.045438315453556 -0.442925484643599 77
4.631171418537303 -2.064836595237255 -0.443622730585580 77
4.620664683394041 -2.078548038692762 -0.443274107614589 77
4.631522536617557 -2.102901487114687 -0.445017222469543 77
4.631028379784565 -2.123184108427383 -0.445714468411524 77
4.641670954329031 -2.147703066747253 -0.447457583266477 77
4.626924685346329 -2.160520575492509 -0.446760337324496 80
4.630168812728934 -2.181753965800805 -0.447806206237468 73
4.633705381028977 -2.202227566909524 -0.448852075150440 71
4.634972446879033 -2.222696351500382 -0.449723632577916 66
4.637946447505721 -2.244068538747138 -0.450769501490888 68
4.630084930528177 -2.260244321444374 -0.450769501490888 66
4.625741759219206 -2.278153114871255 -0.451118124461879 68
4.624898528309812 -2.297832124830830 -0.451815370403860 64
4.629317764230250 -2.320211160108381 -0.453035550802327 70
4.630080836659717 -2.340851080930805 -0.453907108229804 66
4.621881533484323 -2.356998817890044 -0.453907108229804 66
4.620712897112051 -2.376763177859843 -0.454604354171785 68
4.624768170954430 -2.399300597801501 -0.455824534570252 70
4.621660894143929 -2.418200481154039 -0.456347469026738 68
4.629050590059155 -2.442686906287371 -0.457916272396196 71
4.620495819792475 -2.458830426596158 -0.457916272396196 71
4.610129179343913 -2.474001868831842 -0.457741960910701 68
4.618987930708474 -2.499561553776600 -0.459485075765654 66
4.625975250687163 -2.524258762600281 -0.461053879135112 71
4.634591850071601 -2.549995554036059 -0.462796993990065 71
4.623920223211515 -2.565191225427034 -0.462622682504570 68
4.621893309486813 -2.585206544867416 -0.463319928446551 68
4.633666564150675 -2.613068340700169 -0.465411666272495 73
4.634909196653408 -2.635135310879949 -0.466457535185467 73
4.639975319515887 -2.658414473901779 -0.467852027069429 71
4.630667452952819 -2.674594814346741 -0.467852027069429 71
4.624746757179491 -2.692747589964480 -0.468200650040420 71
4.629065435217688 -2.716942693387901 -0.469595141924382 73
4.634986139745855 -2.742215166798358 -0.471163945293840 75
4.630519398094709 -2.761439043567685 -0.471686879750326 100
4.607674187738761 -2.768569964722024 -0.470292387866363 58
4.570714504636226 -2.768123097744100 -0.467503404098438 54
4.543533882122905 -2.774473502300028 -0.465760289243485 52
4.515156797259639 -2.778829410866020 -0.463842862903037 52
4.476646087901596 -2.776719976482765 -0.460879567649616 50
3.819863940362362 -2.387843015650815 -0.394118268704910 15
3.781161843480272 -2.382046438543443 -0.390980661965995 31
3.762731651658815 -2.388823428964900 -0.389934793053023 30
3.742622037003585 -2.394427121055045 -0.388714612654555 28
nan nan nan 0
3.010725611090703 -1.955935235212817 -0.314109296862560 5
2.987210081507545 -1.955520211421421 -0.312366182007607 1
2.937123927875051 -1.937411987526277 -0.307834083384729 1
2.946936313890349 -1.958681270703437 -0.309577198239682 2
2.950013993645613 -1.975607943760031 -0.310623067152654 4
2.910068438664635 -1.963605012565827 -0.307136837442747 18
2.911434804332701 -1.979351966884535 -0.308008394870224 20
2.886426579238397 -1.977117579116282 -0.306090968529775 20
2.879507565864307 -1.987181042863160 -0.306090968529775 20
2.852923260677155 -1.983571863184873 -0.303999230703832 20
2.836190699553035 -1.986659904550470 -0.302953361790860 21
2.812959979715021 -1.985060336529466 -0.301210246935907 20
2.799518286470416 -1.990249557204164 -0.300513000993925 20
2.786074719878887 -1.995369180947328 -0.299815755051944 20
2.769398098805568 -1.998087767208590 -0.298769886138972 21
2.741454856794447 -1.992514678215618 -0.296503836827533 20
2.724837538119129 -1.995010020038165 -0.295457967914561 19
2.705029409018932 -1.995048512795489 -0.294063476030599 20
2.695548976143198 -2.001161488312607 -0.293714853059608 19
2.682164888869651 -2.005785679187563 -0.293017607117627 19
2.649336214520310 -1.996418034535786 -0.290228623349702 18
2.632829287845347 -1.998426199688182 -0.289182754436730 18
2.627420221772312 -2.008814443054116 -0.289357065922225 18
2.607763747777609 -2.008248438747093 -0.287962574038263 18
2.589717689857633 -2.008790951425301 -0.286742393639795 17
2.565419656468548 -2.004325503556677 -0.284824967299347 18
2.549013227753248 -2.005875616297776 -0.283779098386375 18
2.543557308267809 -2.015998680698862 -0.283953409871870 18
2.527162104785502 -2.017407003904939 -0.282907540958898 18
2.509235430954268 -2.017477083623070 -0.281687360560431 18
2.482048928748590 -2.009923592109379 -0.279421311248992 17
2.471929882261998 -2.016056817611418 -0.279072688278001 17
2.459071577928059 -2.019185501069832 -0.278375442336020 17
2.445866787505985 -2.022678045815128 -0.277678196394039 17
2.432667652415218 -2.026103068942769 -0.276980950452058 16
2.404209659695773 -2.016656484594576 -0.274540589655123 18
2.400199574685801 -2.027607931149386 -0.274889212626114 17
2.387037254549279 -2.030809668777389 -0.274191966684133 16
2.374236855836141 -2.033529933420083 -0.273494720742151 17
2.358071947426493 -2.033997127307998 -0.272448851829179 17
2.329546487870494 -2.024330154797072 -0.270008491032245 17
2.319467399527896 -2.029825248164108 -0.269659868061254 17
2.309733556867822 -2.034871580603220 -0.269311245090264 17
2.296654991260492 -2.037632540616644 -0.268613999148282 17
2.283585366568277 -2.040327053917244 -0.267916753206301 17
2.258676193943649 -2.032294002380134 -0.265825015380357 17
2.245662650190583 -2.034814617455763 -0.265127769438376 17
2.232659102476723 -2.037269209105969 -0.264430523496395 17
2.222599978321552 -2.042354055050184 -0.264081900525404 17
2.212532595314970 -2.047393531536918 -0.263733277554414 17
2.184965760504048 -2.036088072033559 -0.261292916757479 16
2.174939444513961 -2.040975866647515 -0.260944293786489 17
2.165262693586384 -2.045440628352546 -0.260595670815498 16
2.160996684960486 -2.055732814139537 -0.260944293786489 16
2.139062445484515 -2.049854288274732 -0.259201178931535 18
2.126159334728838 -2.051774402797334 -0.258503932989554 16
2.113627346521064 -2.053260614766641 -0.257806687047573 17
2.097901827549736 -2.052266504193432 -0.256760818134601 17
2.093564030325179 -2.062373483688870 -0.257109441105592 17
2.077865392092239 -2.061249829433910 -0.256063572192620 17
2.053742794122282 -2.051593245002339 -0.253971834366676 17
2.040950302079005 -2.053097622448071 -0.253274588424695 17
2.033771219789940 -2.060209360335119 -0.253274588424695 17
2.018198874782267 -2.058759329033161 -0.252228719511723 17
2.013779712174762 -2.068646890336217 -0.252577342482713 17
1.989929155873511 -2.058473929022242 -0.250485604656770 18
1.971693445765842 -2.053909095715198 -0.249091112772807 18
1.965886698786146 -2.062221189835135 -0.249265424258302 18
1.960045930271806 -2.070517753958414 -0.249439735743798 17
1.941889375854434 -2.065733576466771 -0.248045243859835 17
1.923790236792150 -2.060848012681415 -0.246650751975873 17
1.911166906769198 -2.061706072004420 -0.245953506033891 18
1.904319534814090 -2.068032393894033 -0.245953506033891 17
1.897089152845333 -2.074667110412225 -0.245953506033891 18
1.884840411952363 -2.075047466531061 -0.245256260091910 17
1.869578899601199 -2.072737326099523 -0.244210391178938 17
1.856291318195545 -2.073962364675081 -0.243513145236957 17
1.849040529370219 -2.080429395303552 -0.243513145236957 17
1.837219975954508 -2.080254599563065 -0.242815899294976 16
1.829947339319709 -2.086655020449305 -0.242815899294976 17
1.809568037763597 -2.078004674996362 -0.241072784440022 16
1.790574767613185 -2.070744756033041 -0.239503981070565 17
1.792421017747176 -2.087563836921690 -0.240724161469032 17
1.777367355220451 -2.084710915372697 -0.239678292556060 18
1.772288699798678 -2.094253051660301 -0.240026915527051 17
1.752150110680548 -2.085173091131622 -0.238283800672097 16
1.737202326915612 -2.082097557535102 -0.237237931759126 17
1.724839593562632 -2.082011738783394 -0.236540685817144 17
1.722624327505415 -2.094174679920748 -0.237237931759126 17
1.707741842380696 -2.090916332431946 -0.236192062846154 17
1.697398202306060 -2.091629844100579 -0.235669128389668 18
1.680086197420030 -2.085130634739422 -0.234274636505705 19
1.669063574573271 -2.086315154961443 -0.233751702049219 18
1.661770807118537 -2.092128563544243 -0.233751702049219 17
1.652355877184246 -2.094499237959155 -0.233403079078229 17
1.641348979860690 -2.095548702500428 -0.232880144621743 18
1.629988992957310 -2.096831421388527 -0.232357210165257 18
1.617790558374056 -2.096199267772945 -0.231659964223275 17
1.605250697757066 -2.095787780314259 -0.230962718281294 18
1.600337216085821 -2.104550274576198 -0.231311341252285 17
1.582177272964845 -2.095812358776588 -0.229742537882827 18
1.572462123357362 -2.098133766566821 -0.229393914911836 18
1.563483161949344 -2.099867294983332 -0.229045291940846 18
1.557328011786739 -2.106914292777339 -0.229219603426341 17
1.547606660926491 -2.109124865284500 -0.228870980455350 17
1.534369685138639 -2.106461946588761 -0.227999423027874 18
1.518835354838581 -2.100503353961805 -0.226779242629407 17
1.513817564541853 -2.109029472044518 -0.227127865600397 17
1.504921563348903 -2.112940882382209 -0.226953554114902 18
1.491785945189837 -2.110046829932429 -0.226081996687425 17
1.477911891168816 -2.105198133938488 -0.225036127774453 17
1.468276211133678 -2.107074866492437 -0.224687504803463 17
1.460912202027837 -2.112187269905623 -0.224687504803463 17
1.453530392167851 -2.117273936983489 -0.224687504803463 17
1.439030748237252 -2.112707013365545 -0.223641635890491 18
1.427183820943114 -2.111114904553682 -0.222944389948510 18
1.417954505679525 -2.112527430436544 -0.222595766977519 18
1.409467172053465 -2.115805989933958 -0.222421455492024 18
1.405369453901896 -2.125699060786821 -0.222944389948510 19
1.394661831976999 -2.125594286443999 -0.222421455492024 19
1.378905718367681 -2.116851931810799 -0.221026963608061 19
1.365018339328192 -2.111612950157878 -0.219981094695089 19
1.358714902207024 -2.118041881467414 -0.220155406180585 19
1.353453125398401 -2.126133253226905 -0.220504029151575 21
1.341396342501757 -2.124341034386419 -0.219806783209594 19
1.327625622088593 -2.118880334032572 -0.218760914296622 19
1.316382804228896 -2.116503850521937 -0.218063668354641 20
1.308986807213223 -2.121085989554750 -0.218063668354641 20
1.303655715699290 -2.129040592831067 -0.218412291325631 20
1.296216034824112 -2.133578229656167 -0.218412291325631 20
1.281189678436618 -2.126368875529003 -0.217192110927164 23
1.270692623883827 -2.125697702773081 -0.216669176470678 20
1.262619967350860 -2.128186268041865 -0.216494864985183 22
1.256194133378837 -2.134297722257163 -0.216669176470678 21
1.247731775893153 -2.136949084293205 -0.216494864985183 22
1.234273212402904 -2.130947058759577 -0.215448996072211 21
1.224842141979257 -2.131787408895029 -0.215100373101220 21
1.217393353085960 -2.136049918272941 -0.215100373101220 22
1.206007754202411 -2.133348681268019 -0.214403127159239 22
1.200502497888408 -2.141021120488935 -0.214751750130230 21
1.185274731939303 -2.131268751279352 -0.213357258246267 22
1.173978883463825 -2.128414738801574 -0.212660012304286 21
1.171113657823245 -2.139082859735334 -0.213357258246267 23
1.161738358277987 -2.139655885464701 -0.213008635275277 22
1.157096192687344 -2.148960834821412 -0.213531569731763 34
1.139265040228240 -2.133653819725803 -0.211614143391314 16
nan nan nan 0
nan nan nan 0
nan nan nan 0
nan nan nan 0
nan nan nan 0
1.402619038515932 -2.764713157017663 -0.271228671430712 2
1.400121590653296 -2.783831917018480 -0.272623163314675 4
1.392173673395426 -2.792268408838359 -0.272971786285665 4
1.385066667151053 -2.802469440560101 -0.273494720742151 5
1.363004363014308 -2.782238063207145 -0.271054359945217 5
1.320688137026470 -2.718642187372398 -0.264430523496395 5
1.192776899845813 -2.477300756239967 -0.240549849983537 4
nan nan nan 0
1.148196266630702 -2.427931125002171 -0.234971882447686 32
1.134641298293693 -2.421099697327262 -0.233926013534715 31
1.127022353276197 -2.426852622851502 -0.234100325020210 38
1.119377060364428 -2.432581836530893 -0.234274636505705 37
1.111705492340434 -2.438287224484830 -0.234448947991200 42
1.100726867415925 -2.436705764662710 -0.233926013534715 37
1.085703505435428 -2.425984540289573 -0.232531521650752 37
1.072383518331739 -2.418831118988469 -0.231485652737780 37
1.069541772938353 -2.435329216176788 -0.232705833136247 18
1.077724799865380 -2.477414820501492 -0.236366374331649 10
1.078531242823457 -2.503118871927565 -0.238458112157593 9
1.072571655316457 -2.512178756293221 -0.238981046614079 8
1.071555250975190 -2.534258317968499 -0.240724161469032 8
1.073475743578636 -2.563712316750742 -0.243164522265966 8
1.076729727994106 -2.596891211761359 -0.245953506033891 8
1.076280567473793 -2.622939133315298 -0.248045243859835 9
1.076117133124627 -2.648830573326419 -0.250136981685779 8
1.075508981139158 -2.672716409738145 -0.252054408026227 9
1.074283489735775 -2.696814656410328 -0.253971834366676 8
1.073633627282894 -2.722790164769098 -0.256063572192620 8
1.081508034765928 -2.771066192790234 -0.260247047844507 9
1.080443451226129 -2.797127153033184 -0.262338785670451 13
1.082055643814695 -2.830658377402932 -0.265127769438376 30
1.075692760218698 -2.843735825234122 -0.265999326865853 31
1.065061315384866 -2.845607396614771 -0.265825015380357 34
1.055121803180695 -2.849307817988564 -0.265825015380357 31
1.040371935606030 -2.839877905281770 -0.264604834981890 28
1.026379638402015 -2.832253080019233 -0.263558966068918 28
1.019176096111080 -2.843320724000272 -0.264256212010900 28
1.006581930272912 -2.839349483429742 -0.263558966068918 28
1.000619636866216 -2.854126945954214 -0.264604834981890 26
0.984620197441753 -2.838605781520511 -0.262861720126937 27
0.973412902492121 -2.838256189120964 -0.262513097155946 26
0.963499609144283 -2.841636742618663 -0.262513097155946 27
0.952941392208465 -2.843093572949850 -0.262338785670451 26
0.941758166746134 -2.842620043202340 -0.261990162699460 26
0.928729933910458 -2.836422708948631 -0.261118605271984 27
0.917596579431754 -2.835856049545866 -0.260769982300993 28
0.908905496170870 -2.842837292743150 -0.261118605271984 28
0.897776369000953 -2.842192922303869 -0.260769982300993 27
0.887849794693507 -2.845309431044968 -0.260769982300993 27
0.872630843647015 -2.831255226848403 -0.259201178931535 27
0.862162412168270 -2.832377986248531 -0.259026867446040 27
0.854564448100245 -2.843002460246549 -0.259724113388021 27
0.845769049912647 -2.849788217747521 -0.260072736359012 27
0.832455088448577 -2.841251063819803 -0.259026867446040 28
0.819211073825407 -2.832655824648964 -0.257980998533068 27
0.811403005897781 -2.839046841577929 -0.258329621504059 28
0.800406309529546 -2.838026698969052 -0.257980998533068 28
0.789999045511524 -2.840941272269943 -0.257980998533068 28
0.781131655673965 -2.847524388509714 -0.258329621504059 27
0.765436171053326 -2.827021332606350 -0.256237883678115 29
0.758647293827431 -2.841225678157398 -0.257283752591087 28
0.748228585451791 -2.843987175527601 -0.257283752591087 28
0.738296659128062 -2.846581654155206 -0.257283752591087 29
0.726877783419772 -2.841293376717084 -0.256586506649106 29
0.715007141941902 -2.836085589897956 -0.255889260707124 29
0.703647610241910 -2.834819751424464 -0.255540637736134 27
0.693747955802660 -2.837258669258945 -0.255540637736134 28
0.685269061614038 -2.843417485957589 -0.255889260707124 29
0.677179669594618 -2.853546400480170 -0.256586506649106 27
0.663092892288690 -2.840487432078573 -0.255192014765143 28
0.651389073426734 -2.835017581543703 -0.254494768823162 29
0.642479403196717 -2.837049987065726 -0.254494768823162 28
0.633438873887098 -2.843164792745488 -0.254843391794152 30
0.622091463671723 -2.843629699936600 -0.254669080308657 30
0.609647543153951 -2.834096882565537 -0.253623211395685 30
0.600328090973660 -2.834049018334411 -0.253448899910190 28
0.589619608132259 -2.832226150489975 -0.253100276939199 28
0.580528227507375 -2.838171001226223 -0.253448899910190 30
0.571402518678288 -2.844086844494641 -0.253797522881181 28
0.558108374426390 -2.826419575680454 -0.252054408026227 29
0.547859787026192 -2.826394535574651 -0.251880096540732 31
0.539356704027983 -2.838170352046615 -0.252751653968209 28
0.528716083892245 -2.836118476470450 -0.252403030997218 30
0.520246146776643 -2.845786393350238 -0.253100276939199 28
0.506794801898775 -2.827973586481552 -0.251357162084246 29
0.497609454099766 -2.833650124655523 -0.251705785055237 30
0.488390643405657 -2.839296947279089 -0.252054408026227 29
0.478476672055466 -2.840984450801038 -0.252054408026227 29
0.468556870618024 -2.842637337824013 -0.252054408026227 27
0.456587643252124 -2.828440087834462 -0.250659916142265 29
0.447954354999267 -2.837888735117384 -0.251357162084246 28
0.436222887275180 -2.827620527780952 -0.250311293171274 28
0.427537596493761 -2.837006576812357 -0.251008539113255 28
0.418792079629306 -2.846366348840129 -0.251705785055237 26
0.406871876957019 -2.834005687644470 -0.250485604656770 27
0.396148110452631 -2.829489236256458 -0.249962670200284 26
0.387077030385033 -2.836777103405912 -0.250485604656770 27
0.376910000023760 -2.836135946740391 -0.250311293171274 27
0.367007741802803 -2.837434329454645 -0.250311293171274 27
0.356102316961160 -2.826775174668870 -0.249265424258302 28
0.346232860700004 -2.828000982043822 -0.249265424258302 27
0.335630522462219 -2.827272496582058 -0.249091112772807 25
0.325987418174293 -2.830406146025935 -0.249265424258302 26
0.313673890382502 -2.809745835199037 -0.247347997917854 19
0.264676583662323 -2.448328416726873 -0.215448996072211 11
nan nan nan 0
0.246400125397168 -2.434215201546688 -0.214054504188248 31
0.237320434603975 -2.429111623628537 -0.213531569731763 36
0.229213422851086 -2.433892452421496 -0.213880192702753 32
0.220536273502981 -2.432693476047193 -0.213705881217258 41
0.210659602287598 -2.417569524527350 -0.212311389333295 37
0.202883529601569 -2.426231974629502 -0.213008635275277 37
0.194890446215202 -2.432883470843174 -0.213531569731763 32
0.186396910745338 -2.433548943496408 -0.213531569731763 36
0.177320202523571 -2.426236405710282 -0.212834323789781 36
0.168711688415761 -2.424853002835150 -0.212660012304286 34
0.163792779482341 -2.479104629457372 -0.217366422412659 7
nan nan nan 0
0.168120952686500 -2.838164639170000 -0.248742489801816 28
0.158102014044177 -2.836744897568987 -0.248568178316321 29
0.147575405191173 -2.825341431779581 -0.247522309403349 28
0.138100145801839 -2.833799463983589 -0.248219555345330 27
0.128117464983503 -2.832273904862437 -0.248045243859835 27
0.118808034430393 -2.834673826615498 -0.248219555345330 26
0.108530035087772 -2.825116670052739 -0.247347997917854 26
0.098036364169487 -2.821513101170414 -0.246999374946863 26
0.088435787784333 -2.829803790979016 -0.247696620888845 27
0.078612673569565 -2.832086871626313 -0.247870932374340 26
0.068726366587776 -2.832344027024174 -0.247870932374340 28
0.058466822056413 -2.814639034044381 -0.246302129004882 26
0.048744815042220 -2.820802249547775 -0.246825063461368 27
0.039501702078547 -2.828917164195610 -0.247522309403349 27
0.029543242231381 -2.821068695527592 -0.246825063461368 27
0.019709604198343 -2.823146974615066 -0.246999374946863 25
0.009750541085381 -2.793312915527396 -0.244384702664434 31
0.000000000000000 -2.821223384995823 -0.246825063461368 27
-0.009889635822690 -2.833160460684705 -0.247870932374340 27
-0.019695694809352 -2.821154633772007 -0.246825063461368 27
-0.029689289332806 -2.835014656593053 -0.248045243859835 20
-0.039390429678325 -2.820948383451396 -0.246825063461368 26
-0.049306681144362 -2.824777870900642 -0.247173686432359 26
-0.059166695623940 -2.824588548950870 -0.247173686432359 25
-0.069074667588681 -2.826356604928603 -0.247347997917854 18
-0.078280974524966 -2.820137137990759 -0.246825063461368 10
-0.088124613302333 -2.819846705155726 -0.246825063461368 10
-0.095684044916303 -2.753812716244660 -0.241072784440022 2
-0.102174486995500 -2.671833638982593 -0.233926013534715 2
-0.114740626198253 -2.749096300020184 -0.240724161469032 5
-0.118844029359257 -2.627267431074081 -0.230091160853818 6
-0.133251123828459 -2.734298078310008 -0.239503981070565 3
-0.138222034439619 -2.646270495962566 -0.231834275708771 1
-0.146112433427289 -2.629883013145021 -0.230439783824808 1
-0.154351811068362 -2.613445574841697 -0.229045291940846 1
-0.163224680088848 -2.608913861631308 -0.228696668969855 1
-0.171016999908587 -2.588447656418202 -0.226953554114902 1
-0.176732408028970 -2.540132899691248 -0.222770078463014 4
-0.199394461969582 -2.728274025421963 -0.239329669585069 5
nan nan nan 0
-0.227167833099285 -2.842044790962493 -0.249439735743798 20
-0.235761602618890 -2.825350601912812 -0.248045243859835 18
nan nan nan 0
-0.255480365259893 -2.823635836995484 -0.248045243859835 11
nan nan nan 0
-0.277313909765774 -2.843596254561601 -0.249962670200284 21
-0.286036389993448 -2.830717154651169 -0.248916801287312 21
-0.295754052689514 -2.837731200755903 -0.249614047229293 21
-0.306298125800429 -2.842624306608996 -0.250136981685779 19
-0.316494100190358 -2.839502447269775 -0.249962670200284 19
-0.326631503008218 -2.840359722224585 -0.250136981685779 17
nan nan nan 0
-0.340412538841101 -2.792582389266770 -0.246127817519387 2
-0.350158396600646 -2.791377114388740 -0.246127817519387 2
-0.362958627913497 -2.813850046958316 -0.248219555345330 3
-0.370160759143029 -2.792814776649868 -0.246476440490377 2
-0.370234926562039 -2.720434794236993 -0.240201227012546 1
-0.377996055496429 -2.703274001148675 -0.238806735128583 2
-0.393651442516400 -2.745326866089001 -0.242641587809480 2
-0.399962263852843 -2.728306072676087 -0.241247095925518 1
-0.405341219553082 -2.699309141055994 -0.238806735128583 1
-0.417788550614338 -2.717570329660020 -0.240549849983537 2
-0.426652861098944 -2.712159048923524 -0.240201227012546 2
-0.445944462038692 -2.765576318824759 -0.245081948606415 1
-0.469853016871462 -2.850500788274426 -0.252751653968209 6
-0.468899469035979 -2.790065589602762 -0.247522309403349 2
-0.472568544895698 -2.753065761560879 -0.244384702664434 2
-0.479424299777477 -2.735699562862804 -0.242990210780471 2
-0.484059998899291 -2.706551622847515 -0.240549849983537 2
-0.497556296866376 -2.724358979767240 -0.242292964838490 3
-0.506698259548061 -2.720646877393224 -0.242118653352994 5
-0.513388183182632 -2.709253847847400 -0.241247095925518 6
-0.534175399090458 -2.766132680709612 -0.246476440490377 10
-0.547004799153644 -2.777840192254250 -0.247696620888845 3
-0.568842650649970 -2.836472155445002 -0.253100276939199 8
-0.581033289005650 -2.848235492729988 -0.254320457337667 13
-0.586111313535923 -2.822780579711904 -0.252228719511723 15
-0.598514384710073 -2.830359832443293 -0.253100276939199 17
-0.613418558884799 -2.851627378746354 -0.255192014765143 11
-0.620318771117276 -2.837898933850189 -0.254146145852171 14
-0.632382359937291 -2.845441006567192 -0.255017703279648 30
-0.641871913047826 -2.841272829718958 -0.254843391794152 12
-0.638857173973849 -2.782700718207533 -0.249788358714788 4
-0.644011134346869 -2.763103456474517 -0.248219555345330 4
-0.642635630984525 -2.714307616611827 -0.244036079693443 4
-0.645121694986608 -2.680940476281619 -0.241247095925518 4
-0.644072473226597 -2.636092197930363 -0.237412243244621 4
-0.643224470952390 -2.595264321829239 -0.233926013534715 4
-0.644502907950911 -2.562088147412850 -0.231137029766789 4
-0.642108119503276 -2.515421653627036 -0.227127865600397 5
-0.641393640327964 -2.476518649202350 -0.223815947375986 6
-0.639909249709912 -2.435724731501670 -0.220329717666080 15
-0.638660983659327 -2.396897040483132 -0.217017799441669 21
-0.652220803276734 -2.413887256304478 -0.218760914296622 30
-0.666433363955247 -2.432733368328918 -0.220678340637070 31
-0.678119806321860 -2.441910707452959 -0.221724209550042 34
-0.685559912141876 -2.435693013606354 -0.221375586579052 35
-0.693754305175394 -2.435443410699209 -0.221549898064547 33
-0.704461437673597 -2.440663903492612 -0.222247144006528 32
-0.840473654197390 -2.874195746856639 -0.261990162699460 20
-0.858989386612788 -2.899899569811133 -0.264604834981890 23
-0.865671487577077 -2.885433337819603 -0.263558966068918 23
-0.876896639510272 -2.886206691847057 -0.263907589039909 24
-0.889309409933557 -2.890745415063014 -0.264604834981890 24
-0.903541982351073 -2.900939321552095 -0.265825015380357 27
-0.913662645612369 -2.897767697937611 -0.265825015380357 32
-0.920743414949277 -2.885070402771197 -0.264953457952881 35
-0.927857418007170 -2.874417030679912 -0.264256212010900 14
-0.923037563827869 -2.825706960667622 -0.260072736359012 7
-0.915388076147028 -2.769499179571633 -0.255192014765143 9
-0.910516968445818 -2.722827579142191 -0.251182850598751 7
-0.912354384818443 -2.696984815315089 -0.249091112772807 11
-0.917892816525580 -2.682473174958000 -0.248045243859835 13
-0.914870082700510 -2.643479209508369 -0.244733325635424 11
-0.919484677278786 -2.627105874597811 -0.243513145236957 21
-0.927984640857843 -2.622002043919955 -0.243338833751462 9
-0.923034232309717 -2.579353043315673 -0.239678292556060 11
-0.925253814993258 -2.557379953986651 -0.237935177701107 15
-0.934175099986034 -2.554134635014064 -0.237935177701107 26
-0.945157716640903 -2.556464476463617 -0.238458112157593 22
-0.956865379744067 -2.560615035443538 -0.239155358099574 23
-0.961129770569352 -2.546243789444483 -0.238109489186602 22
-0.971432187020655 -2.546596402017113 -0.238458112157593 22
-0.984615178659176 -2.554344298054847 -0.239503981070565 23
-0.996417865136004 -2.558317964714214 -0.240201227012546 23
-1.005341990841507 -2.554824231134601 -0.240201227012546 23
-1.014253866772121 -2.551299367827984 -0.240201227012546 22
-1.021668401198167 -2.544045676934215 -0.239852604041555 22
-1.035036198342549 -2.551541493656096 -0.240898472954527 23
-1.043936434473662 -2.547912998221602 -0.240898472954527 23
-1.060442068879685 -2.562663395457053 -0.242641587809480 22
-1.066308039081596 -2.551592855693922 -0.241944341867499 23
-1.077532201150911 -2.553362092495873 -0.242467276323985 17
-1.088335716244322 -2.555273982611615 -0.242990210780471 15
-1.103545635851573 -2.566101936146841 -0.244384702664434 19
-1.112496280028934 -2.562234209440152 -0.244384702664434 23
-1.118233844200220 -2.551036160684780 -0.243687456722452 22
-1.140031744394473 -2.576268810907761 -0.246476440490377 23
-1.163644471281543 -2.605018305479197 -0.249614047229293 25
-1.173549538740611 -2.602756856867785 -0.249788358714788 24
-1.190055235188268 -2.614965413589623 -0.251357162084246 24
-1.197512705595130 -2.607174338863909 -0.251008539113255 23
-1.208281988604080 -2.606593603361277 -0.251357162084246 10
-1.218217562602315 -2.604164719823058 -0.251531473569741 24
-1.229001412085492 -2.603499941628288 -0.251880096540732 19
-1.243623602134864 -2.612002409268875 -0.253100276939199 24
-1.249282558668877 -2.600461843317290 -0.252403030997218 23
-1.259636561659983 -2.599890831159214 -0.252751653968209 23
-1.275703947443279 -2.609797918427042 -0.254146145852171 23
-1.288786858970189 -2.612251763862856 -0.254843391794152 22
-1.297897467556060 -2.607737143457986 -0.254843391794152 23
-1.308780212781234 -2.606751885053968 -0.255192014765143 22
-1.321472243208107 -2.609277255617979 -0.255889260707124 22
-1.341896623533339 -2.627948494103156 -0.258155310018564 21
-1.399411646433181 -2.717125611656842 -0.267393818749815 26
-1.408442261033876 -2.710210348344054 -0.267219507264320 23
-1.413269506915805 -2.696453980775431 -0.266347949836843 16
-1.339853728710461 -2.536964071277499 -0.251008539113255 9
-1.344018232730865 -2.523479043003951 -0.250136981685779 11
-1.350933168699092 -2.515261686099322 -0.249788358714788 15
-1.358755988169120 -2.508778784994877 -0.249614047229293 19
-1.363601107591222 -2.494801634026880 -0.248742489801816 20
-1.370377945453851 -2.486536702631697 -0.248393866830826 21
-1.380984737193028 -2.485221183196195 -0.248742489801816 20
-1.393546673262101 -2.487338233468098 -0.249439735743798 20
-1.402766907720686 -2.484438332909384 -0.249614047229293 19
-1.409459397882299 -2.476063600554435 -0.249265424258302 16
-1.417231212906427 -2.471623441674137 -0.249265424258302 14
-1.447786310736751 -2.504609959306352 -0.253100276939199 8
-1.568868877010519 -2.692343042328011 -0.272623163314675 11
-1.575230002117400 -2.681696460430326 -0.272100228858189 12
-1.576460420687073 -2.662466327669963 -0.270705736974226 13
-1.573491541657750 -2.636417054980695 -0.268613999148282 12
-1.579034530674523 -2.623803834948200 -0.267916753206301 13
-1.579917286922472 -2.604648008983779 -0.266522261322339 12
-1.580234369189476 -2.585793998814478 -0.265127769438376 13
-1.574622634414823 -2.556512250025368 -0.262687408641442 12
-1.575573479454163 -2.537183127504413 -0.261292916757479 12
-1.579135378105206 -2.523223369664533 -0.260421359330003 13
-1.576868209147035 -2.501118992934308 -0.258678244475049 19
-1.579178399128431 -2.485509433252750 -0.257632375562078 19
-1.571301556997181 -2.455087246513290 -0.255017703279648 20
-1.570142933869604 -2.434518191008986 -0.253448899910190 29
-1.579717138636852 -2.430693116898622 -0.253623211395685 46
-1.594741463082887 -2.435164742981262 -0.254669080308657 31
-1.602134706090129 -2.427920261496069 -0.254494768823162 34
-1.603981064653389 -2.412358265135528 -0.253448899910190 34
-1.619045606525680 -2.416676175376324 -0.254494768823162 34
-1.633045049449485 -2.419266811636489 -0.255366326250638 33
-1.648202702145092 -2.423436534925764 -0.256412195163610 33
-1.663409281165264 -2.427529795610180 -0.257458064076582 32
-1.671450114071121 -2.422000384271971 -0.257458064076582 32
-1.677619551718859 -2.412879477923626 -0.257109441105592 33
-1.692890286904054 -2.416800014981614 -0.258155310018564 32
-1.705911226705010 -2.417387482567596 -0.258852555960545 32
-1.723574587532376 -2.424408817691608 -0.260247047844507 34
-1.727386459552659 -2.411898405755618 -0.259549801902526 34
-1.741623759748911 -2.413932765236593 -0.260421359330003 34
-1.757067617474090 -2.417508692058596 -0.261467228242975 34
-1.767849587078067 -2.414575800740373 -0.261815851213965 35
-1.788093272878944 -2.424424698539789 -0.263558966068918 35
-1.796545200707885 -2.418168317801337 -0.263558966068918 35
-1.807362771584372 -2.415072793175808 -0.263907589039909 35
-1.822977903182539 -2.418295108051746 -0.264953457952881 36
-1.838637465201103 -2.421437719551295 -0.265999326865853 35
-1.847867261773274 -2.416910047377301 -0.266173638351348 36
-1.862370828184350 -2.418337809682384 -0.267045195778825 34
-1.870801056281802 -2.411822188973794 -0.267045195778825 35
-1.886568313629233 -2.414697326590348 -0.268091064691796 34
-1.906883735917290 -2.424087443398537 -0.269834179546750 34
-1.922757537068336 -2.426786239657989 -0.270880048459722 34
-1.930794478269068 -2.420396802599139 -0.270880048459722 34
-1.942975166842289 -2.418301867405797 -0.271402982916208 33
-1.956839959734599 -2.417358648906118 -0.272100228858189 34
-1.972820068290210 -2.419778540987542 -0.273146097771161 33
-1.993898268745852 -2.428275440446180 -0.274889212626114 32
-1.997283468968736 -2.415159106558013 -0.274191966684133 33
-2.012930323705190 -2.417709586729544 -0.275237835597104 32
-2.029038343883470 -2.419828653783738 -0.276283704510076 32
-2.042614647695456 -2.418820157454176 -0.276980950452058 33
-2.061371681463759 -2.423817217523529 -0.278375442336020 34
-2.069819823882646 -2.416606920822383 -0.278375442336020 32
-2.084749454860788 -2.416910594867078 -0.279246999763497 34
-2.099706346698565 -2.417139394315316 -0.280118557190973 33
-2.118625685856057 -2.421791817318632 -0.281513049074936 33
-2.134968823403120 -2.423351518241256 -0.282558917987908 34
-2.143414891849174 -2.415884322409643 -0.282558917987908 34
-2.155396110802322 -2.413221139961044 -0.283081852444394 35
-2.174465839450888 -2.417533355008513 -0.284476344328356 35
-2.192254249942425 -2.420265026679597 -0.285696524726823 34
-2.215458921664349 -2.428789818318850 -0.287613951067272 34
-2.218532153291413 -2.415172434658076 -0.286916705125291 34
-2.231008000395788 -2.411801350809615 -0.287439639581777 34
-2.254864286017978 -2.422280461287880 -0.289531377407720 33
-2.271481583895687 -2.423116232858719 -0.290577246320692 37
-2.290867455865662 -2.426763029993935 -0.291971738204655 36
-2.302069944991386 -2.421639687238689 -0.292320361175645 36
-2.310930235586770 -2.413185913412602 -0.292320361175645 37
-2.330403979978699 -2.416577926571294 -0.293714853059608 36
-2.352705481849043 -2.422721920665527 -0.295457967914561 36
-2.366720056803166 -2.420192608457270 -0.296155213856542 37
-2.377106576212247 -2.415585601893471 -0.296503836827533 37
-2.393938608319029 -2.415764498500069 -0.297549705740505 37
-2.416430174942543 -2.421496441700290 -0.299292820595458 37
-2.427692593743722 -2.415857544554169 -0.299641443566449 34
-2.443196556848350 -2.414370833330703 -0.300513000993925 18
nan nan nan 0
nan nan nan 0
-2.339882527537190 -2.263547767406091 -0.284824967299347 2
nan nan nan 0
nan nan nan 0
nan nan nan 0
nan nan nan 0
nan nan nan 0
nan nan nan 0
nan nan nan 0
nan nan nan 0
nan nan nan 0
nan nan nan 0
nan nan nan 0
nan nan nan 0
nan nan nan 0
nan nan nan 0
nan nan nan 0
nan nan nan 0
nan nan nan 0
nan nan nan 0
nan nan nan 0
nan nan nan 0
nan nan nan 0
nan nan nan 0
nan nan nan 0
nan nan nan 0
nan nan nan 0
nan nan nan 0
nan nan nan 0
nan nan nan 0
nan nan nan 0
nan nan nan 0
-2.339378191822826 -1.821156234537467 -0.259375490417031 1
nan nan nan 0
nan nan nan 0
nan nan nan 0
nan nan nan 0
nan nan nan 0
nan nan nan 0
-2.325517225227772 -1.720792225976810 -0.253100276939199 1
-2.254145971852147 -1.656440622813316 -0.244733325635424 3
-2.258304670061066 -1.647387903858224 -0.244559014149929 5
nan nan nan 0
nan nan nan 0
nan nan nan 0
nan nan nan 0
nan nan nan 0
nan nan nan 0
nan nan nan 0
nan nan nan 0
nan nan nan 0
nan nan nan 0
nan nan nan 0
nan nan nan 0
nan nan nan 0
nan nan nan 0
nan nan nan 0
nan nan nan 0
nan nan nan 0
nan nan nan 0
nan nan nan 0
nan nan nan 0
nan nan nan 0
nan nan nan 0
nan nan nan 0
nan nan nan 0
nan nan nan 0
nan nan nan 0
nan nan nan 0
nan nan nan 0
-2.338544408997935 -1.368726008771389 -0.237063620273630 1
nan nan nan 0
nan nan nan 0
nan nan nan 0
nan nan nan 0
-2.347950835659150 -1.320304107110007 -0.235669128389668 1
nan nan nan 0
nan nan nan 0
nan nan nan 0
nan nan nan 0
nan nan nan 0
nan nan nan 0
nan nan nan 0
nan nan nan 0
nan nan nan 0
-2.569333809607203 -1.329541283534527 -0.253100276939199 1
-2.644867086289225 -1.356943723102281 -0.260072736359012 1
nan nan nan 0
nan nan nan 0
nan nan nan 0
nan nan nan 0
nan nan nan 0
nan nan nan 0
nan nan nan 0
nan nan nan 0
nan nan nan 0
nan nan nan 0
nan nan nan 0
-2.822170341269195 -1.302233028425227 -0.271925917372694 1
-2.768715224298549 -1.265863648405762 -0.266347949836843 2
nan nan nan 0
-2.775449894629072 -1.246172330237789 -0.266173638351348 21
-2.770895890656617 -1.231944304341611 -0.265302080923871 14
-2.771532544192429 -1.220658437729839 -0.264953457952881 15
-2.766435006080444 -1.207475923961876 -0.264081900525404 13
-2.761489026156642 -1.193858732724568 -0.263210343097928 11
-2.774797293739475 -1.188133295750514 -0.264081900525404 9
-2.769756369189160 -1.174550965527828 -0.263210343097928 9
-2.773839442875594 -1.164875555771469 -0.263210343097928 9
-2.761331765578730 -1.148300738088401 -0.261641539728470 21
-2.780061825208216 -1.144723675868350 -0.263036031612432 30
-2.778505847233778 -1.132755989041462 -0.262513097155946 44
-2.769314833673285 -1.118313624905589 -0.261292916757479 22
-2.775051639523421 -1.109379685469907 -0.261467228242975 31
-2.756675933202463 -1.090888699305871 -0.259375490417031 41
-2.764177355947169 -1.082712764214832 -0.259724113388021 22
-2.762366855142975 -1.070896870127097 -0.259201178931535 19
-2.771668694529750 -1.063388937636911 -0.259724113388021 44
-2.777226388896254 -1.054414716118159 -0.259898424873517 38
-2.788350532957148 -1.047516683260850 -0.260595670815498 18
-2.805062924126101 -1.042636298881941 -0.261815851213965 11
-2.825514986919575 -1.039027228913104 -0.263384654583423 18
-2.806299862694542 -1.021964330244930 -0.261292916757479 20
-2.813599053084496 -1.013512739520595 -0.261641539728470 20
-2.798525411777798 -0.996510074400741 -0.259898424873517 27
-2.805745365148669 -0.988058915265170 -0.260247047844507 25
-2.801480655333006 -0.976127060442089 -0.259549801902526 26
-2.812405818830948 -0.968938070412161 -0.260247047844507 26
-2.802735606370558 -0.954129028341426 -0.259026867446040 24
-2.796607444338504 -0.941162386721698 -0.258155310018564 17
-2.803656737273879 -0.932652462693217 -0.258503932989554 16
-2.801217078350024 -0.920993313958378 -0.257980998533068 15
-2.794781963033763 -0.908619014986766 -0.257109441105592 21
-2.805524233217266 -0.901295450418024 -0.257806687047573 20
-2.793461074804999 -0.886674692162056 -0.256412195163610 20
-2.794638014057944 -0.876322153862626 -0.256237883678115 15
-2.788164005226807 -0.863614219067093 -0.255366326250638 17
-2.793066824731205 -0.854459299821445 -0.255540637736134 19
-2.799846933335234 -0.845856865047536 -0.255889260707124 23
-2.800873214810803 -0.835508886427895 -0.255714949221629 20
-2.786428287357557 -0.821147450804128 -0.254146145852171 15
-2.791190735802783 -0.811972524995940 -0.254320457337667 16
-2.792093028162797 -0.801674658844340 -0.254146145852171 18
-2.800625154897632 -0.793553023615536 -0.254669080308657 21
-2.803241272766766 -0.784261452700377 -0.254669080308657 7
-2.846293877287138 -0.785603571002142 -0.258329621504059 4
-2.872224214320693 -0.781442754317032 -0.260421359330003 4
-2.905723584073806 -0.779673501052553 -0.263210343097928 4
-2.946949667699654 -0.779718278673427 -0.266696572807834 3
-2.995922512133190 -0.781496193618380 -0.270880048459722 3
-3.044806417148463 -0.783472998765653 -0.275063524111609 2
-5.550431074049569 -1.407567667880974 -0.500971209313539 6
-5.518584455766696 -1.379007191628408 -0.497659291089128 14
-5.521429839531517 -1.359259071038244 -0.497484979603633 12
-5.549141313327150 -1.346580034059665 -0.499576717429577 4
-3.212914716348910 -0.767794989154990 -0.289008442951235 4
-3.227344303923363 -0.758749787546861 -0.290054311864206 4
-5.510753508258059 -1.275297279128794 -0.494870307321203 16
-5.528770074027003 -1.259150386783688 -0.496090487719670 12
-5.519522397345200 -1.236794196354638 -0.494870307321203 10
-5.519702181829983 -1.217625610608104 -0.494521684350212 14
-5.512236268596524 -1.195816431877238 -0.493475815437241 13
-5.573092508882188 -1.187647624726525 -0.498530848516605 4
-3.219567890380918 -0.674362302597812 -0.287788262552767 5
-3.213865190693099 -0.662635106399139 -0.287091016610786 5
-5.512577922046376 -1.116537784571983 -0.492081323553278 15
-5.520349994118302 -1.098065886094355 -0.492429946524269 15
-5.526104778585704 -1.079171451198978 -0.492604258009764 11
-5.539807209843310 -1.060783529918626 -0.493475815437241 13
-5.518020547880965 -1.036657223399368 -0.491209766125801 15
-5.533183943703280 -1.020521354463876 -0.492255635038773 3
