# This PCD file was generated using the MATLAB® pcwrite function
# from Computer Vision Toolbox®.
# .PCD v.7 - Point Cloud Data file format
VERSION .7
FIELDS x y z intensity
SIZE 8 8 8 1
TYPE F F F U
COUNT 1 1 1 1
WIDTH 942
HEIGHT 1
VIEWPOINT 0 0 0 1 0 0 0
POINTS 942
DATA ascii
-1.575149990560849 -2.665556322155399 0.270880048459722 13
-1.576288191540373 -2.646347874336901 0.269485556575759 13
-1.579821803863675 -2.630304773619291 0.268439687662787 13
-1.580739143629746 -2.611138951340611 0.267045195778825 15
-1.574864855676695 -2.582069125267298 0.264604834981890 15
-1.574477840408325 -2.561280065931237 0.263036031612432 15
-1.578606797754331 -2.547024610513048 0.262164474184956 15
-1.584321423576865 -2.536429248270862 0.261641539728470 15
-1.579990513281527 -2.510925701464051 0.259549801902526 22
-1.571673840185071 -2.478473567006267 0.256760818134601 17
-1.574951476129605 -2.464577962672704 0.255889260707124 22
-1.579230027399146 -2.452364890500799 0.255192014765143 28
-1.587780757165062 -2.446837408324560 0.255192014765143 50
-1.594131386033467 -2.437945030086173 0.254843391794152 39
-1.594535831608492 -2.420997882766104 0.253623211395685 37
-1.601875274446693 -2.413757083935881 0.253448899910190 35
-1.615142494884663 -2.414493830550460 0.254146145852171 35
-1.630242131401187 -2.418754148028406 0.255192014765143 35
-1.641611123537451 -2.418280129311467 0.255714949221629 35
-1.653416815267659 -2.417468713749634 0.256237883678115 37
-1.662975789668531 -2.413323084286003 0.256412195163610 35
-1.679343315990580 -2.418960021600193 0.257632375562078 37
-1.695770361402287 -2.424511958242782 0.258852555960545 37
-1.707666031350410 -2.423463859920933 0.259375490417031 38
-1.712655185750782 -2.412614260298079 0.258852555960545 37
-1.726861183236759 -2.414724381529898 0.259724113388021 35
-1.744596561264089 -2.421614319499769 0.261118605271984 35
-1.757719955902893 -2.421959747120880 0.261815851213965 34
-1.773218711352461 -2.425459774517282 0.262861720126937 31
-1.780492861232004 -2.417651028672897 0.262687408641442 36
-1.793247471801313 -2.418134824323940 0.263384654583423 37
-1.808831657655967 -2.421437699488672 0.264430523496395 37
-1.822064787432147 -2.421477064989978 0.265127769438376 36
-1.837727150964676 -2.424629149551341 0.266173638351348 36
-1.846179490074259 -2.418199513000521 0.266173638351348 34
-1.859467511761762 -2.418058002575418 0.266870884293329 34
-1.875217081742792 -2.421003409681911 0.267916753206301 34
-1.887333159294467 -2.419155571664434 0.268439687662787 34
-1.903960195568344 -2.423851300977133 0.269659868061254 36
-1.912409415965326 -2.417190472694352 0.269659868061254 34
-1.920835334257095 -2.410500191708480 0.269659868061254 37
-1.941708680664513 -2.419318875282103 0.271402982916208 37
-1.961414346209222 -2.426471546582952 0.272971786285665 39
-1.972388164169699 -2.422700328915456 0.273320409256656 39
-1.980832950037824 -2.415800649459352 0.273320409256656 39
-1.996865539877796 -2.418089154901429 0.274366278169628 39
-2.014212161029640 -2.421826887746976 0.275586458568095 37
-2.031609098938814 -2.425472851576174 0.276806638966562 39
-2.047347538751956 -2.427861206789087 0.277852507879534 42
-2.054520165149776 -2.419181206573887 0.277678196394039 40
-2.069427220493658 -2.419565459690205 0.278549753821516 39
-2.085662201363730 -2.421384618260865 0.279595622734487 43
-2.105851651659827 -2.427634936866583 0.281164426103945 42
-2.115623644737862 -2.421769829805811 0.281338737589441 39
-2.129328409819057 -2.420353740082411 0.282035983531422 39
-2.137764048429867 -2.412906251231948 0.282035983531422 39
-2.158111564123144 -2.418809376872197 0.283604786900880 36
-2.174531341410904 -2.420153600366398 0.284650655813852 36
-2.193660266911022 -2.424367300318663 0.286045147697814 36
-2.202109523529865 -2.416695226928212 0.286045147697814 36
-2.215498696627725 -2.415252435032531 0.286742393639795 36
-2.233379475736786 -2.417748885494715 0.287962574038263 39
-2.252661588218695 -2.421608609450526 0.289357065922225 39
-2.274721945245602 -2.428271145603299 0.291100180777178 40
-2.278239335393775 -2.416763619923392 0.290577246320692 39
-2.296263592965354 -2.418911278526337 0.291797426719160 40
-2.316552681725572 -2.421594138507913 0.293191918603122 42
-2.336049733089157 -2.424972266086854 0.294586410487085 40
-2.351977141529770 -2.426204665954251 0.295632279400056 43
-2.363215375352724 -2.420831343800741 0.295980902371047 42
-2.377238184946480 -2.418250749683729 0.296678148313028 43
-2.394075072184886 -2.418433575335437 0.297724017226000 42
-2.416568568516894 -2.424172392891936 0.299467132080953 40
-2.439131128929502 -2.429783472457558 0.301210246935907 43
-2.447597796024791 -2.421254512858035 0.301210246935907 43
-2.465983854311147 -2.422469704020896 0.302430427334374 42
-2.489110328663229 -2.427325323885126 0.304173542189327 27
-2.909774194332784 -2.817798488212729 0.354375250011978 42
-2.939697826981071 -2.826958667176765 0.356815610808913 37
-2.925052332464485 -2.793287917691281 0.353852315555492 24
-2.936230613318187 -2.784431527755546 0.354026627040987 24
-2.964788491532965 -2.791922049279191 0.356292676352427 22
-2.989547371623548 -2.797568950919262 0.358210102692875 22
-3.005132539110796 -2.792541483572519 0.358907348634856 24
-3.023647435975549 -2.790141549114570 0.359953217547828 22
nan nan nan 0
-2.448093352758772 -2.226812636409876 0.289531377407720 12
-2.451415851093698 -2.214247150818866 0.289008442951235 3
-2.456163699900023 -2.203015975344347 0.288659819980244 3
-2.448960443941477 -2.181177560018902 0.286916705125291 3
-2.447226755549993 -2.165123338732352 0.285870836212319 3
-2.466744022600217 -2.167087575120083 0.287265328096281 3
-2.449898171448745 -2.137935489917708 0.284476344328356 3
-2.466380393791063 -2.137199293203331 0.285522213241328 3
-2.459092066461538 -2.115152862557442 0.283779098386375 3
-2.457370197468307 -2.098792422691229 0.282733229473403 3
-2.449486056139751 -2.077315242389474 0.280990114618450 3
-2.468914486728001 -2.079019045423848 0.282384606502412 3
-2.460512501055873 -2.058037556827782 0.280641491647459 3
-2.464615959746026 -2.046890343602775 0.280292868676469 3
-2.456374370876089 -2.025598920010838 0.278549753821516 3
-2.463430065539638 -2.017012232695020 0.278549753821516 3
-2.458088005691831 -1.998346395661744 0.277155261937553 3
-2.443343730757085 -1.972234047079948 0.274714901140619 3
-2.443994411342496 -1.958709177485542 0.274017655198637 4
-2.416517731307003 -1.922873710752351 0.270182802517740 4
-2.419754625516893 -1.912378902790431 0.269834179546750 6
-2.424847879902477 -1.902690809062168 0.269659868061254 9
-2.477055065241942 -1.929723795482281 0.274714901140619 22
-2.480623967314036 -1.918627602790735 0.274366278169628 28
-2.487306114660902 -1.909956920292664 0.274366278169628 33
-2.489204540822279 -1.897639211508277 0.273843343713142 34
-2.491047338287367 -1.885331565612584 0.273320409256656 27
-2.473720213879923 -1.858672296939703 0.270705736974226 21
-2.438670247627923 -1.819053330054171 0.266173638351348 19
-2.366547148441287 -1.752431497453369 0.257632375562078 17
-2.369439235842084 -1.741799867466044 0.257283752591087 8
-2.380333078402136 -1.737041780723240 0.257806687047573 15
-2.381541452541031 -1.725215748966315 0.257283752591087 15
-2.374608424804429 -1.707586459041705 0.255889260707124 8
-2.370233876830355 -1.693169281195650 0.254843391794152 6
-2.381005479440866 -1.688342662580622 0.255366326250638 8
-2.387470681815691 -1.679187834307935 0.255366326250638 8
-2.383515612589545 -1.664000730024313 0.254320457337667 8
-2.370721827151109 -1.644015428216148 0.252403030997218 13
-2.366598916465304 -1.628952161867930 0.251357162084246 13
-2.383786479215172 -1.628548650662702 0.252577342482713 11
-2.382860498395607 -1.615745110514797 0.251880096540732 8
-2.385180121196830 -1.605192732120137 0.251531473569741 8
-2.377514322895788 -1.588004135642760 0.250136981685779 8
-2.376400378557033 -1.575292055152332 0.249439735743798 8
-2.390207144428881 -1.572462420292472 0.250311293171274 6
-2.378998481835089 -1.553217333200621 0.248568178316321 11
-2.397782478674211 -1.553570677011285 0.249962670200284 11
-2.406542574850807 -1.547346467970691 0.250311293171274 9
-2.422006858950398 -1.545366737142410 0.251357162084246 9
-2.442266611712431 -1.546921540775095 0.252925965453704 11
-2.452712112918079 -1.541567691111631 0.253448899910190 4
-2.481746124167542 -1.547757365168760 0.255889260707124 2
-2.504076013519048 -1.549569255496764 0.257632375562078 2
-2.529844349309306 -1.553328990649624 0.259724113388021 6
-2.553967685284323 -1.555890988216062 0.261641539728470 9
-2.586665098239133 -1.563456480940535 0.264430523496395 9
-2.607485173893989 -1.563639800603050 0.265999326865853 7
-2.616080242289772 -1.557022458257684 0.266347949836843 6
-5.478041459902800 -3.234544833785106 0.556576573186545 19
-5.485860421226207 -3.213389161963242 0.556227950215554 19
-5.490153136085860 -3.190216321652171 0.555530704273573 19
-5.490898691996912 -3.165062735805047 0.554484835360601 22
-5.470780254699458 -3.128075388842432 0.551347228621686 19
-5.474733709201405 -3.105028085204493 0.550649982679704 19
-5.482065966812671 -3.083945062580881 0.550301359708714 19
-5.489317787677859 -3.062848708839232 0.549952736737723 19
-5.489516140346387 -3.037880477459791 0.548906867824751 19
-5.482620740053799 -3.009113764577194 0.547163752969798 19
-5.489591206512010 -2.988052475943219 0.546815129998807 19
-5.488951171406880 -2.964151641121767 0.545769261085835 19
-5.481700627129677 -2.935567711149461 0.544026146230882 19
-5.488394944441167 -2.914546222748001 0.543677523259892 19
-5.477380179511184 -2.884230782394837 0.541585785433948 21
-5.478583925257372 -2.860482878386601 0.540714228006471 21
-5.477919373639807 -2.835845799421223 0.539668359093499 21
-5.484239868716805 -2.814887437288714 0.539319736122509 21
-5.488705131719468 -2.793015929698727 0.538796801666023 21
-5.485969197196700 -2.767558010896170 0.537576621267556 21
-5.474212711677456 -2.737697413322823 0.535484883441612 21
-5.488140697083471 -2.723142909978886 0.536007817898098 21
-5.492249279417892 -2.701331114902275 0.535484883441612 21
-5.495416314224949 -2.676732656827694 0.534787637499631 21
-5.479607023780834 -2.645406819738502 0.532347276702696 21
-5.487890759986225 -2.628179100336397 0.532347276702696 21
-5.486231714244930 -2.603881024873024 0.531301407789724 21
-5.497541629168584 -2.584603179480231 0.531475719275220 18
-5.493888002164694 -2.559507703282286 0.530255538876752 21
-5.484699502399594 -2.531964057018238 0.528512424021799 21
-5.486256924512853 -2.509488413207629 0.527815178079818 21
-5.489539078652176 -2.487855219614938 0.527292243623332 21
-5.489101952704517 -2.464597535899228 0.526420686195855 21
-5.501312404187745 -2.447041463982567 0.526769309166846 21
-5.487941819241763 -2.418182795974951 0.524677571340902 21
-5.492278846653912 -2.398376164095049 0.524328948369912 21
-5.496959955643317 -2.377608013245385 0.523980325398921 21
-5.497489061776114 -2.356226821510621 0.523283079456940 25
-5.502012327462242 -2.335465671482515 0.522934456485949 21
-5.507265330954325 -2.312779414703883 0.522585833514958 6
-5.533701499574165 -2.301191619033918 0.524328948369912 3
nan nan nan 0
-5.548841764124233 -2.264440379125045 0.524328948369912 3
-5.495751058450424 -2.220427558275295 0.518576669348566 18
-5.488669072525100 -2.195311004759791 0.517182177464604 18
-5.494825818466738 -2.174446157352966 0.517007865979108 21
-5.494961965312426 -2.152345776915660 0.516310620037127 21
-5.498726221400945 -2.131711321840086 0.515961997066136 21
-5.506133782421516 -2.112504198258562 0.515961997066136 21
-5.492984990513114 -2.085492285601912 0.514044570725688 24
-5.490905664900230 -2.062802083959827 0.513173013298211 21
-5.493624422687840 -2.044152109588036 0.512824390327221 21
-5.500726376102151 -2.024963328048094 0.512824390327221 21
-5.508111290404263 -2.004788556732758 0.512824390327221 21
-5.492580540712487 -1.977450672319170 0.510732652501277 21
-5.495354146173746 -1.957888390723907 0.510384029530286 21
-5.498396669900827 -1.937369852268634 0.510035406559296 21
-5.505125854603341 -1.918165063031263 0.510035406559296 21
-5.500485593426904 -1.895042977631285 0.508989537646324 20
-5.490419481927789 -1.869091252693063 0.507420734276866 23
-5.498798702169968 -1.850550216160423 0.507595045762361 20
-5.501124272143820 -1.831046916109876 0.507246422791371 20
-5.507482303921277 -1.811833253519582 0.507246422791371 20
-5.509983693899784 -1.791365488529840 0.506897799820380 20
-5.501027908269148 -1.767245981211811 0.505503307936417 20
-5.497668124786181 -1.745019193616011 0.504631750508941 23
-5.501824770533123 -1.725221981822068 0.504457439023446 23
-5.507813400086265 -1.706006518757794 0.504457439023446 20
-5.506113999640643 -1.684438865268743 0.503760193081464 23
-5.496412309046409 -1.661558434489580 0.502365701197502 20
-5.496451285532459 -1.640652645515891 0.501842766741016 23
-5.498322484724069 -1.620330052101150 0.501494143770025 23
-5.509684248877322 -1.602797033576632 0.502017078226511 23
-5.511415456140281 -1.582455190777786 0.501668455255520 23
-5.505404137485283 -1.559948175101861 0.500622586342549 23
-5.497384177797779 -1.536965984866259 0.499402405944081 23
-5.498874361031101 -1.516707645953910 0.499053782973091 23
-5.507980170032655 -1.498549860186276 0.499402405944081 23
-5.509328888214111 -1.478281611598318 0.499053782973091 23
-5.494940535342832 -1.454904331020471 0.497310668118138 23
-5.492274461092226 -1.433701626193047 0.496613422176156 23
-5.499175088005779 -1.415017773436065 0.496787733661652 23
-5.506012175405470 -1.396303208465085 0.496962045147147 23
-5.505053775840122 -1.375626088181333 0.496439110690661 20
-5.498214297108819 -1.353543896247614 0.495393241777689 19
-5.495160433133236 -1.332465266275658 0.494695995835708 19
-5.503653939136036 -1.314200952527017 0.495044618806698 22
-5.500449787215539 -1.293157690795010 0.494347372864717 19
-5.516576777199509 -1.276644898655876 0.495393241777689 19
-5.497687740511742 -1.252071537103948 0.493301503951745 19
-5.498136435256156 -1.232002108943613 0.492952880980755 19
-5.506294803051737 -1.213660235850372 0.493301503951745 19
-5.502709032280154 -1.192744042556099 0.492604258009764 19
-5.510531180773425 -1.175321046717288 0.492952880980755 19
-5.500950244200824 -1.153216962242989 0.491732700582287 22
-5.495382620316994 -1.131038988920662 0.490861143154811 22
-5.507108705122241 -1.113428964988517 0.491558389096792 19
-5.500999818657995 -1.093218838271203 0.490686831669315 22
-5.512604421405188 -1.075536229689206 0.491384077611297 22
-5.502627295683289 -1.053664177368837 0.490163897212830 19
-5.502355478901886 -1.033714264638830 0.489815274241839 19
-5.507889698628307 -1.014862194400269 0.489989585727334 22
-5.509438018735356 -0.995275697901256 0.489815274241839 19
-5.512878613876980 -0.976038106723927 0.489815274241839 22
-5.506436641250011 -0.955086151971147 0.488943716814362 22
-5.507609347464101 -0.936486916160885 0.488769405328867 22
-5.504948689026184 -0.916274694002603 0.488246470872381 22
-5.516136175831062 -0.897371568234492 0.488943716814362 22
-5.511364414158650 -0.876858984116801 0.488246470872381 22
-5.502579311258124 -0.855778298839395 0.487200601959409 22
-5.511442349150089 -0.837463422497319 0.487723536415895 22
-5.508276891267641 -0.818303893781087 0.487200601959409 22
-5.509127975675725 -0.798785540689302 0.487026290473914 22
-5.521610093646506 -0.781908986873928 0.487897847901390 22
-5.504569113330343 -0.759905554727785 0.486154733046437 22
-5.503109657121497 -0.741115729902884 0.485806110075447 22
-5.543197229331071 -0.726823246139254 0.489118028299858 11
-5.626857002482971 -0.716824610820672 0.496264799205166 11
-5.647120454236681 -0.699382784667502 0.497833602574623 11
-5.689089868020918 -0.684425963373639 0.501319832284530 8
-5.699360078483029 -0.665487452145287 0.502017078226511 8
-5.705607818762108 -0.646037244081975 0.502365701197502 8
-5.703867130226669 -0.625682518445811 0.502017078226511 8
-5.713835482272515 -0.607607101505101 0.502714324168492 8
-5.707993846988268 -0.586843331659300 0.502017078226511 8
-5.710007537442593 -0.566915139608829 0.502017078226511 8
-5.719884919442121 -0.547739734376106 0.502714324168492 8
-5.713826170743180 -0.527038275364558 0.502017078226511 8
-5.715631067060599 -0.507090089057782 0.502017078226511 8
-5.721336713495139 -0.487474012715532 0.502365701197502 8
-5.723003459006354 -0.467499850761097 0.502365701197502 8
-5.811919564040162 -0.455366737018760 0.510035406559296 3
-5.777710686386787 -0.432400098229845 0.506897799820380 2
-5.779112808970544 -0.413238141668755 0.506897799820380 2
-5.780520070941684 -0.393062755775213 0.506897799820380 2
-5.781856899099981 -0.372882580536029 0.506897799820380 2
-5.783123277156605 -0.352697861840281 0.506897799820380 2
-5.784261067839732 -0.333518394711334 0.506897799820380 2
-5.817221606576912 -0.315049460577443 0.509686783588305 3
-5.826245245345674 -0.295144851703967 0.510384029530286 3
-5.787436445763554 -0.272928574511709 0.506897799820380 2
-5.788353885235083 -0.252724988517514 0.506897799820380 2
-5.789200795441215 -0.232518323149088 0.506897799820380 2
-5.778030858292197 -0.211870773398291 0.505851930907408 2
-5.746874519369827 -0.190643462602729 0.503062947139483 2
-5.767449889464787 -0.170166425261507 0.504806061994436 2
-5.791909332577197 -0.150654916091144 0.506897799820380 2
-5.728614249340011 -0.131000793954799 0.501319832284530 5
-5.725052595734518 -0.110926207509299 0.500971209313539 8
-5.713452092832072 -0.090751512043597 0.499925340400567 8
-5.709749593571007 -0.070757912052378 0.499576717429577 8
-5.709961799028396 -0.050826735471599 0.499576717429577 8
-5.722058591806713 -0.030959618451714 0.500622586342549 8
-5.726114565833839 -0.011992763837813 0.500971209313539 8
-5.718151993126233 0.007984051541201 0.500273963371558 8
-5.718098692603993 0.025948086885480 0.500273963371558 8
-5.713988629894240 0.045875826583714 0.499925340400567 8
-5.725747225068501 0.065958790614242 0.500971209313539 8
-5.729466432636533 0.086004785037798 0.501319832284530 8
-5.717197398883825 0.104784845128238 0.500273963371558 8
-5.720780630915772 0.124827877425873 0.500622586342549 8
-5.724318752320208 0.143898121162670 0.500971209313539 8
-5.735731019254614 0.164220972866855 0.502017078226511 8
-5.731140112854682 0.184113464552598 0.501668455255520 8
-5.714533507600657 0.203550367432369 0.500273963371558 5
-5.650080426674275 0.221004623970531 0.494695995835708 8
-5.655246303347738 0.240980205726534 0.495218930292194 11
-5.616600565013370 0.257995318891727 0.491907012067783 8
-5.536067394099651 0.273664553120828 0.484934552647970 19
-5.527119982820969 0.292566105855194 0.484237306705989 11
-3.178780407253489 0.179391073098181 0.278549753821516 3
-3.086649115246340 0.185002668013246 0.270531425488731 6
-2.974634573212692 0.188711876092854 0.260769982300993 6
nan nan nan 0
-2.957344932798338 0.208353793876954 0.259375490417031 56
-2.954612663061818 0.218528625390938 0.259201178931535 67
-2.935953922075217 0.227455768257019 0.257632375562078 53
-2.933238917790760 0.236518067808002 0.257458064076582 59
-2.928424700011423 0.246421410712180 0.257109441105592 61
-2.923532356693877 0.256804286636333 0.256760818134601 61
-2.918649878563633 0.266645218468045 0.256412195163610 61
-2.929602220824697 0.277960739999279 0.257458064076582 61
-2.928614108634974 0.288185266705493 0.257458064076582 61
-2.927590312206553 0.298406281965179 0.257458064076582 61
-2.922568039892180 0.308205755129840 0.257109441105592 61
-2.917568526999836 0.317464600437366 0.256760818134601 61
-2.928322197151028 0.328981491555579 0.257806687047573 63
-2.931054961349932 0.340171500063083 0.258155310018564 66
-2.933806267195135 0.350873913529466 0.258503932989554 66
-2.924716612229163 0.359628211163034 0.257806687047573 63
-2.919490186735407 0.369335071171963 0.257458064076582 59
-2.926086181378333 0.380551566881528 0.258155310018564 63
-2.928689664416755 0.391290897117995 0.258503932989554 66
-2.931253778249668 0.402053033528836 0.258852555960545 61
-2.917994786015407 0.410616781075073 0.257806687047573 61
-2.920414041375791 0.421878730021245 0.258155310018564 61
-2.926807273583837 0.433237276292609 0.258852555960545 63
-2.921491802117111 0.441834094193113 0.258503932989554 61
-2.931745329072311 0.453858156030107 0.259549801902526 63
-2.918174525934808 0.463237685010719 0.258503932989554 61
-2.916539746136201 0.473421192847044 0.258503932989554 61
-2.922731518039050 0.484903312322831 0.259201178931535 61
-2.928878571108035 0.496434411027702 0.259898424873517 63
-2.927127847898070 0.506655080708641 0.259898424873517 59
-2.921417459285303 0.516176257605257 0.259549801902526 61
-2.915859628022275 0.524645955393063 0.259201178931535 61
-2.929687766411600 0.537698324053956 0.260595670815498 67
-2.927601561260150 0.548943526111159 0.260595670815498 61
-2.929581491341466 0.559907457647943 0.260944293786489 63
-2.919786598492052 0.568606800306180 0.260247047844507 67
-2.921692620911571 0.579570638717228 0.260595670815498 63
-2.923557630507947 0.590554702495063 0.260944293786489 70
-2.929284620092270 0.602361452268823 0.261641539728470 72
-2.934964710691742 0.614215360054674 0.262338785670451 69
-2.925007993400633 0.622796871564812 0.261641539728470 69
-2.919142202091797 0.631140884128915 0.261292916757479 67
-2.924704970821749 0.643038092416974 0.261990162699460 73
-2.926331343106956 0.654112552916389 0.262338785670451 69
-2.931801744919296 0.666089013992692 0.263036031612432 67
-2.925458221631794 0.675933072743291 0.262687408641442 76
-2.934718965082521 0.688872523980588 0.263733277554414 78
-2.955799076366547 0.703625526362356 0.265825015380357 76
-2.943641924541170 0.711598120572540 0.264953457952881 36
-2.931465247084915 0.719494444000972 0.264081900525404 36
nan nan nan 0
-14.618332971381520 3.696292286865067 1.319189322228554 3
-14.601481681054349 3.746306971914618 1.318840699257563 3
-13.890328588658814 3.615570895223666 1.255739941508259 3
-14.617352213374549 3.859341868046742 1.322675551938460 3
-14.596093180926793 3.908281107107973 1.321978305996479 3
-14.597744047750325 3.963383548711893 1.323372797880442 3
-14.630625643665827 4.024451716136367 1.327556273532329 3
-14.670225641069560 4.090481059010575 1.332436995126198 3
nan nan nan 0
nan nan nan 0
nan nan nan 0
nan nan nan 0
nan nan nan 0
nan nan nan 0
nan nan nan 0
nan nan nan 0
nan nan nan 0
nan nan nan 0
nan nan nan 0
nan nan nan 0
nan nan nan 0
nan nan nan 0
nan nan nan 0
nan nan nan 0
nan nan nan 0
nan nan nan 0
nan nan nan 0
nan nan nan 0
nan nan nan 0
nan nan nan 0
nan nan nan 0
nan nan nan 0
nan nan nan 0
nan nan nan 0
nan nan nan 0
nan nan nan 0
nan nan nan 0
nan nan nan 0
nan nan nan 0
nan nan nan 0
-13.884420774039700 5.651997882518049 1.311519616866760 3
nan nan nan 0
nan nan nan 0
nan nan nan 0
nan nan nan 0
nan nan nan 0
nan nan nan 0
nan nan nan 0
nan nan nan 0
nan nan nan 0
nan nan nan 0
nan nan nan 0
nan nan nan 0
nan nan nan 0
nan nan nan 0
nan nan nan 0
nan nan nan 0
nan nan nan 0
-13.942345533090997 6.718991088555914 1.354051619327617 3
-14.700037603152966 7.147468879401567 1.430051427003575 4
-14.677510662647476 7.193615062261443 1.430051427003575 4
nan nan nan 0
nan nan nan 0
nan nan nan 0
nan nan nan 0
nan nan nan 0
nan nan nan 0
nan nan nan 0
nan nan nan 0
nan nan nan 0
nan nan nan 0
nan nan nan 0
nan nan nan 0
nan nan nan 0
nan nan nan 0
nan nan nan 0
nan nan nan 0
nan nan nan 0
nan nan nan 0
nan nan nan 0
nan nan nan 0
nan nan nan 0
nan nan nan 0
nan nan nan 0
nan nan nan 0
nan nan nan 0
-6.177015904420829 3.754208057524225 0.632402069377008 3
-6.157077748702208 3.771584098556609 0.631704823435026 3
-6.103844574258273 3.766868509966108 0.627521347783139 3
-6.056821570638318 3.767106665978773 0.624035118073233 3
-5.992990028041250 3.756481057914555 0.618805773508373 3
-5.909093536708574 3.732687509952823 0.611484691117570 3
-5.896028025549393 3.753291354859756 0.611484691117570 3
-5.882890673149396 3.773849467095991 0.611484691117570 3
-5.762595087435606 3.725137211288657 0.600328756045869 3
-5.689456927138175 3.706080984382532 0.594053542568038 3
-5.636510377283797 3.699679455159378 0.589870066916150 3
-5.593649183926791 3.699548327475872 0.586732460177235 7
-5.557489798989296 3.703582843238647 0.584292099380300 7
-5.552798501529484 3.728512879978192 0.585163656807777 21
-5.534455257989440 3.741475646303567 0.584466410865796 21
-5.546061746699261 3.777595915871448 0.587081083148225 7
-3.259251160428741 2.236672690968786 0.345833987222708 1
-5.575274178027522 3.854747169245442 0.593007673655066 3
-5.555245203572097 3.869629838293522 0.592310427713085 3
-5.548227319157242 3.893575672045357 0.593007673655066 7
-5.544363605558765 3.919819970090179 0.594053542568038 7
-1.963639376100211 1.398583019702128 0.210916897449333 1
-1.906943914653773 1.368260512558530 0.205338929913483 3
-1.894082508422971 1.369072877853775 0.204467372486006 10
-1.899197210599576 1.382381373883661 0.205513241398978 10
-1.895966980219271 1.390180506447496 0.205687552884473 3
-1.867063351493455 1.379034389228207 0.203072880602044 10
-1.841457907393340 1.370082257313615 0.200806831290604 7
-1.825503923038762 1.368137637723540 0.199586650892137 4
-1.812766380125426 1.368499310455176 0.198715093464661 5
-1.796876760433184 1.366376839355866 0.197494913066193 6
-1.784187634863762 1.366583235524506 0.196623355638717 9
-1.769941571089376 1.365500743908883 0.195577486725745 10
-1.763591070680717 1.370448150978821 0.195403175240250 13
-1.750951803358612 1.370455848244070 0.194531617812773 15
-1.753980637943509 1.382726842447672 0.195403175240250 19
-1.758505386430523 1.396274535664861 0.196449044153222 25
-1.756732780885127 1.404893097277539 0.196797667124212 22
-1.740956503724301 1.402268126581396 0.195577486725745 18
-1.736051068000934 1.408336655767667 0.195577486725745 16
-1.731371309954719 1.414085865056192 0.195577486725745 12
-1.711037651779480 1.407463814978708 0.193834371870792 15
-1.712251363656793 1.418512149164257 0.194531617812773 20
-1.701170083746536 1.419374715305040 0.193834371870792 16
-1.692906107647303 1.423036252406502 0.193485748899801 17
-1.683366501536736 1.425074936186194 0.192962814443315 15
-1.684697042936199 1.435818809785410 0.193660060385296 13
-1.685722270378736 1.446881358172247 0.194357306327278 11
-1.671617523848111 1.444939286658344 0.193311437414306 4
nan nan nan 0
nan nan nan 0
nan nan nan 0
nan nan nan 0
nan nan nan 0
nan nan nan 0
nan nan nan 0
nan nan nan 0
nan nan nan 0
nan nan nan 0
nan nan nan 0
nan nan nan 0
nan nan nan 0
nan nan nan 0
nan nan nan 0
nan nan nan 0
nan nan nan 0
nan nan nan 0
nan nan nan 0
nan nan nan 0
nan nan nan 0
nan nan nan 0
nan nan nan 0
nan nan nan 0
nan nan nan 0
nan nan nan 0
nan nan nan 0
nan nan nan 0
nan nan nan 0
nan nan nan 0
nan nan nan 0
nan nan nan 0
nan nan nan 0
nan nan nan 0
nan nan nan 0
nan nan nan 0
-3.305334385277736 3.694219296201116 0.433686975912347 6
-3.277182785054158 3.687289321955332 0.431595238086403 6
-3.266928523830627 3.701694006948262 0.431943861057394 6
-3.227724284269288 3.683106841089247 0.428457631347488 10
-3.205692792389135 3.683830327435145 0.427237450949020 27
-3.187603663421876 3.688967652128707 0.426540205007039 27
-3.172112568187011 3.697047820917605 0.426191582036048 29
-3.151435528457389 3.698998409379162 0.425145713123077 29
-3.120489219308180 3.688680959000963 0.422705352326142 29
-3.097985967457855 3.686805677589706 0.421310860442180 29
-3.083821323900162 3.696067376197504 0.421136548956684 27
-3.061358243298664 3.696603839959618 0.419916368558217 27
-3.043374291847199 3.701111758236495 0.419219122616236 34
-3.014083571600367 3.689054036891456 0.416778761819301 34
-2.988635986972209 3.684079851078630 0.415035646964348 28
-2.978215894079565 3.700184475625420 0.415558581420834 30
-2.959062564519762 3.702775636112625 0.414687023993358 28
-2.967824634566855 3.739097370929404 0.417650319246778 46
-2.946122246215941 3.738480125640676 0.416430138848311 40
-2.945902295232881 3.766516292496593 0.418347565188759 38
-2.952288330710191 3.801954973363741 0.421136548956684 40
-2.961565833885881 3.840122817354754 0.424274155695600 38
-2.959044365775026 3.864674658440189 0.425842959065058 38
-2.952770333229460 3.884497044373637 0.426888827978030 38
-2.953594844123005 3.913864735901396 0.428980565803973 36
-2.954250133360315 3.943285282424257 0.431072303629917 40
-2.953546814295682 3.971159164463699 0.432989729970366 40
-2.951712496997050 3.994840199078428 0.434558533339824 38
-2.949533914423768 4.021184720880965 0.436301648194777 38
-2.945794189490635 4.048591036240622 0.438044763049730 38
-2.954975849356674 4.091151929732198 0.441530992759636 38
-2.946481793023909 4.109537811842903 0.442402550187113 38
-2.952914047417699 4.149016340908958 0.445540156926029 40
-2.948759813152813 4.173944075087552 0.447108960295486 40
-2.953618818929800 4.211943356367562 0.450072255548907 40
-2.963147980941657 4.253898769774747 0.453558485258813 38
-2.966410373040732 4.290437330416239 0.456347469026738 7
nan nan nan 0
nan nan nan 0
nan nan nan 0
nan nan nan 0
nan nan nan 0
nan nan nan 0
nan nan nan 0
nan nan nan 0
-3.273409956602139 5.067675442824506 0.527815178079818 3
nan nan nan 0
-5.256859049878380 8.264342270397094 0.856915262694975 7
-5.238613705034902 8.299490119283462 0.858658377549928 7
-5.201150568015727 8.304217446524541 0.857263885665966 7
-5.182648490452779 8.339244426053453 0.859007000520919 7
-5.169610853380028 8.380124585487614 0.861447361317853 7
-5.138247002653141 8.394720168209508 0.861098738346863 7
-5.108912656858471 8.412604853873074 0.861098738346863 7
nan nan nan 0
nan nan nan 0
nan nan nan 0
nan nan nan 0
nan nan nan 0
-6.295292418031137 10.873066662354390 1.099208227533465 3
-6.195778793453064 10.787856719009685 1.088400915432755 3
-6.124357130864120 10.741496733929534 1.081777078983933 2
nan nan nan 0
nan nan nan 0
nan nan nan 0
-5.975674833883784 10.824916287485692 1.081777078983933 2
-5.937852418669174 10.845709336207092 1.081777078983933 2
nan nan nan 0
nan nan nan 0
-5.730109007935459 10.731540546330924 1.064345930434401 2
-5.687020240554351 10.740912147610819 1.063300061521430 5
-5.645736276742952 10.762669504943332 1.063300061521430 5
-5.648585261438590 10.860085280635730 1.070969766883224 5
-5.641772846679028 10.935417144397938 1.076547734419074 5
-5.630786143789485 11.008258252525390 1.081777078983933 2
nan nan nan 0
nan nan nan 0
nan nan nan 0
nan nan nan 0
nan nan nan 0
nan nan nan 0
-6.915598164573665 14.369551604623634 1.395189129904512 4
nan nan nan 0
-6.817628277531264 14.416291338662742 1.395189129904512 4
nan nan nan 0
-3.366800954090915 7.249838215100693 0.699337679807209 8
-3.326482127303215 7.228967154095526 0.696200073068293 8
-3.293354451478239 7.226606787509860 0.694805581184331 16
-3.252530781981039 7.203557178668889 0.691493662959920 37
-3.228179412669500 7.216685464445806 0.691667974445415 20
-3.212655209783544 7.249768545593700 0.693759712271359 4
-3.170971039168535 7.220249466387814 0.689924859590462 28
-3.168002250931713 7.282430290943176 0.694805581184331 4
-3.109131770639875 7.212392108098071 0.687135875822537 12
-3.072201962383462 7.195715518572925 0.684521203540107 45
-3.049393292058294 7.211900933827807 0.685044137996593 45
-3.021891931923525 7.216988005648861 0.684521203540107 45
-3.008127985650435 7.255099331511889 0.687135875822537 41
-2.997161325369593 7.300574623507694 0.690447794046948 33
-2.997917339248830 7.375593233162821 0.696548696039284 33
-2.998185825015181 7.450705288834342 0.702649598031620 33
-2.999440793579368 7.529610173148393 0.709099122994947 33
-3.001642823179608 7.612320766988895 0.715897270929264 33
-3.001854853362362 7.691425521046702 0.722346795892591 12
-5.720248119182579 14.808976182969046 1.388913916426681 3
-5.694131080271407 14.895851185228841 1.395189129904512 4
-5.712591172223013 15.101988943445170 1.412620278454044 4
nan nan nan 0
nan nan nan 0
nan nan nan 0
nan nan nan 0
nan nan nan 0
nan nan nan 0
nan nan nan 0
nan nan nan 0
nan nan nan 0
nan nan nan 0
nan nan nan 0
nan nan nan 0
nan nan nan 0
-0.779816015036936 2.407172580509901 0.221375586579052 2
-0.776267930929334 2.425060327404717 0.222770078463014 2
-0.767798161375595 2.427755233859015 0.222770078463014 2
-0.752189280232824 2.407599708563800 0.220678340637070 2
-0.742605597451605 2.406403071421480 0.220329717666080 2
-0.730716026873665 2.397545553633130 0.219283848753108 2
-0.724639376076319 2.407713041999913 0.219981094695089 3
-0.719068154555691 2.419777075508052 0.220852652122566 5
-0.706130247767050 2.406977812339186 0.219458160238603 13
-0.691627945623949 2.388376606384983 0.217540733898155 27
-0.696426871458824 2.436752754714659 0.221724209550042 51
-0.681848681967239 2.416038897092491 0.219632471724099 40
-0.672876525158968 2.416484905352128 0.219458160238603 42
-0.662326319089976 2.411134071223919 0.218760914296622 42
-0.652342733846649 2.407662173510390 0.218237979840136 40
-0.645991748740997 2.417624045932345 0.218935225782117 38
-0.638563935325406 2.423717535971912 0.219283848753108 36
-0.630099691928347 2.425931773959817 0.219283848753108 16
nan nan nan 0
-0.611621483005857 2.422437420986806 0.218586602811127 2
-0.604123852844017 2.428424538118620 0.218935225782117 1
-0.595643388764021 2.430518529107204 0.218935225782117 1
-0.587155666957307 2.432582904994536 0.218935225782117 1
-0.575896487703111 2.422987301579266 0.217889356869145 2
-0.567435175091304 2.424982793801278 0.217889356869145 4
-0.557178254225885 2.419182502410431 0.217192110927164 9
nan nan nan 0
-0.544611814754923 2.442459690177319 0.218935225782117 51
-0.528826824712124 2.411261560820103 0.215971930528697 37
-0.523352532878783 2.422648350062461 0.216843487956174 39
-0.515720525350667 2.428358278072458 0.217192110927164 39
-0.506409928372731 2.428281750368153 0.217017799441669 40
-0.497530613798354 2.428082821912060 0.216843487956174 39
-0.488658863322129 2.427851515901301 0.216669176470678 38
-0.480567411123475 2.431497041967578 0.216843487956174 32
nan nan nan 0
-0.465816706461973 2.446536127700564 0.217889356869145 4
-0.458371321023636 2.454022779654039 0.218412291325631 5
-0.447648508223252 2.443849146631809 0.217366422412659 4
-0.436650194736330 2.431669675243714 0.216146242014192 3
-0.432302901610872 2.456725948373997 0.218237979840136 3
-0.423386255711181 2.456256565389411 0.218063668354641 5
-0.412820245681189 2.445931871389965 0.217017799441669 6
-0.401554601469925 2.425594717080751 0.215100373101220 15
-0.391173975931901 2.415181067702865 0.214054504188248 27
-0.388974604941054 2.455889001116704 0.217540733898155 46
-0.377656316535463 2.439511392021889 0.215971930528697 38
-0.371521992891985 2.456574698071502 0.217366422412659 41
-0.361780466398156 2.449972522723521 0.216669176470678 40
-0.352657917503838 2.447276406815431 0.216320553499688 41
-0.344390467148818 2.450465502628443 0.216494864985183 38
-0.337616251050814 2.461463610422449 0.217366422412659 37
-0.329285933650209 2.464601956299468 0.217540733898155 23
-0.319051338933721 2.459920632429041 0.217017799441669 5
-0.310213302120649 2.459042620394857 0.216843487956174 4
-0.302972786415917 2.463960039781972 0.217192110927164 3
-0.295787627594409 2.476872597352833 0.218237979840136 5
-0.287852446756004 2.487836003352101 0.219109537267613 5
-0.276057271535001 2.461106021852812 0.216669176470678 4
-0.268325433565851 2.469977591013574 0.217366422412659 6
-0.260535013669099 2.478825073133673 0.218063668354641 10
-0.249867277201764 2.459897510449850 0.216320553499688 28
-0.241667956468108 2.464720484514228 0.216669176470678 32
-0.235125508557845 2.487368065304551 0.218586602811127 51
-0.223913485751161 2.460394999377520 0.216146242014192 37
-0.216971252886343 2.475017437075636 0.217366422412659 38
-0.208330507903790 2.475759729433386 0.217366422412659 38
-0.199894145509095 2.484450556387650 0.218063668354641 41
-0.191067722656720 2.483146663715602 0.217889356869145 34
-0.182398759190862 2.483798486352865 0.217889356869145 33
nan nan nan 0
-0.166547107380912 2.500886373808110 0.219283848753108 2
-0.158067270588399 2.505429367460416 0.219632471724099 2
-0.149044964495524 2.494006715233545 0.218586602811127 2
-0.140114523275435 2.490533297212184 0.218237979840136 2
-0.131613046477802 2.502967958179421 0.219283848753108 2
-0.122875256000604 2.503412124509029 0.219283848753108 3
-0.114226696441917 2.505816110117551 0.219458160238603 7
-0.104976389744519 2.494255806567180 0.218412291325631 11
-0.095731356024425 2.480670694474526 0.217192110927164 33
-0.088049948891332 2.508866035455978 0.219632471724099 51
-0.079165975627001 2.505175311625725 0.219283848753108 42
-0.070364821195837 2.503444787211504 0.219109537267613 46
-0.061865217518714 2.495697250441097 0.218412291325631 47
-0.053068389924777 2.491914120216527 0.218063668354641 46
-0.044582467203028 2.504036623992641 0.219109537267613 46
-0.035812963100416 2.502184805042526 0.218935225782117 43
-0.027207845828593 2.514248207934555 0.219981094695089 30
-0.131034680813322 17.875237393218647 1.563922647863978 52
-0.068622359386515 17.871601138131755 1.563574024892988 57
-0.006241193410812 17.879701352056895 1.564271270834969 57
0.043717935467004 9.277165369720700 0.486201033496948 70
0.077619760676318 9.264959688658115 0.485573002022033 70
0.109960032439379 9.264632299825680 0.485573002022033 70
0.142360313356416 9.268186071375803 0.485782345847005 70
0.174937324178281 9.279614101752447 0.486410377321920 72
0.205708671598624 9.278982966212551 0.486410377321920 70
0.238045876637594 9.276211776447433 0.486305705409434 66
0.270424448146023 9.275324327414710 0.486305705409434 66
0.301245871022849 9.276372775499334 0.486410377321920 68
0.333911793680515 9.283248589558490 0.486829064971863 70
0.367617923222539 9.273979620818620 0.486410377321920 70
0.400160062532632 9.276630701464017 0.486619721146892 68
0.432632147878752 9.277172456617523 0.486724393059378 66
0.465312895615011 9.281590030675295 0.487038408796835 70
0.499543124738808 9.283810979015632 0.487247752621807 70
0.532175177781795 9.285998662463644 0.487457096446779 70
0.562119531508176 9.270227666972264 0.486724393059378 80
0.594986616759508 9.276181679160564 0.487143080709321 80
0.628306514181708 9.287997208415216 0.487875784096722 86
0.660723846923560 9.285747423734858 0.487875784096722 90
0.693430547159793 9.287367925530210 0.488085127921694 91
0.725222644214844 9.276926083533850 0.487666440271751 88
0.753877594406262 9.268629898046029 0.487352424534293 80
0.787577462334911 9.281862768871340 0.488189799834180 71
0.819230206096128 9.289147717484759 0.488713159396610 78
0.853453884293658 9.288071575692037 0.488817831309095 75
1.703363795451270 17.886418073548818 0.941628524723045 37
1.765199810600352 17.874400482920532 0.941314508985588 34
1.832329463216772 17.883705504317749 0.942151884285475 37
1.892884835512203 17.889447980022378 0.942779915760390 43
1.956187485656161 17.890673294079434 0.943198603410334 37
2.018177636062614 17.879766617201788 0.942989259585362 37
2.081270206238155 17.878564518981680 0.943303275322820 40
2.146519777566008 17.894987133300763 0.944559338272650 37
2.212829169938398 17.892946023770133 0.944873354010108 43
2.277038090235923 17.898981834725348 0.945606057397509 37
2.338985391021290 17.886963643798108 0.945396713572537 37
2.402471807282012 17.886608019465999 0.945815401222481 40
2.471290940165099 17.901424321288193 0.947071464172311 37
2.534323587867747 17.896643903893743 0.947280807997283 43
2.595663206734510 17.901977513655769 0.948013511384684 43
2.657843466427269 17.890832315463147 0.947908839472199 40
2.721479469266355 17.889343878400467 0.948327527122142 37
2.785444725871703 17.889602557741501 0.948850886684572 37
2.849146912112393 17.907881639534757 0.950316293459374 37
2.914205330423550 17.913597907470646 0.951153668759261 40
2.975407382748733 17.895435448805916 0.950734981109318 43
3.041200533964717 17.904630878834446 0.951781700234176 51
3.106070115751022 17.907681166106677 0.952514403621578 48
3.175866626136792 17.919775921313487 0.953770466571408 17
3.232502210950141 17.911675736133251 0.953875138483894 46
3.296452221828510 17.908140105622493 0.954293826133838 48
3.363173001776276 17.901826477439698 0.954607841871296 48
3.428523525279955 17.921962337867438 0.956282592471070 48
3.494118932684234 17.925568282527383 0.957119967770957 48
3.559781252509116 17.928934468147883 0.957957343070844 48
3.623134821562838 17.920314580522906 0.958166686895816 48
3.687276835835616 17.915383323156025 0.958585374545759 48
3.756193602526497 17.917386573030612 0.959422749845646 48
3.822880242196107 17.923699089557438 0.960469468970505 48
3.890503534971561 17.933667841398936 0.961725531920336 48
3.953940503319322 17.923878927035737 0.961934875745307 48
4.004622305964681 17.871690032043318 0.959841437495590 23
4.012873594413467 17.620020350641191 0.947071464172311 14
4.014013701775771 17.345163713019048 0.933045427899203 13
4.024711930447963 17.119123243064394 0.921636189438241 11
4.013007116321321 16.805803085939193 0.905516714915414 10
4.018932385521594 16.574299373734782 0.893793460716995 15
4.026155568454408 16.354597859906146 0.882698237993491 15
4.029473557982258 16.125361982880701 0.871079655707557 17
4.035659500034196 15.913728628759101 0.860403120633997 16
4.034445141926240 15.679039963245472 0.848470522610605 16
4.032979550315923 15.460720505651492 0.837375299887101 16
4.040032206611797 15.258554300014216 0.827222124375970 18
4.041954587757436 15.063744959328160 0.817382964602297 18
4.044176328484880 14.864532447816801 0.807334461003651 18
4.041339774285626 14.652012685712874 0.796553254017605 19
4.042610809200511 14.469254515088320 0.787342125718847 19
4.045208139032825 14.285945095189069 0.778130997420089 21
4.051533260253467 14.120074039141542 0.769861916333704 20
4.056192652977778 13.952416885222073 0.761488163334833 22
4.055781786459621 13.771489820192715 0.752381706948560 22
4.062242421978475 13.609168060925674 0.744321969687147 22
4.063487434215395 13.441960202824845 0.735948216688276 20
4.068876656696726 13.292099399490359 0.728516510901778 22
4.071495858956915 13.136643214294750 0.720770789377822 24
4.071286104107647 12.975615454177543 0.712711052116409 22
4.071816063112149 12.820461685557373 0.704965330592453 22
4.076813947489494 12.682576959721327 0.698161656280871 24
4.081517164729823 12.546714352064551 0.691462653881774 26
4.084073088451007 12.407180679270271 0.684554307657705 22
4.082549647562944 12.258308910988450 0.677122601871207 24
4.082817388479339 12.131846388663993 0.670842287122054 24
4.085234380203866 12.000297148143533 0.664352628547929 24
4.088854669068032 11.868166825924625 0.657862969973804 24
4.091484887936621 11.742544828078582 0.651687327137137 22
4.085987248625046 11.596329247504977 0.644360293263124 22
4.090235970845556 11.474041433204990 0.638393994251429 24
4.089052385248897 11.357779931284712 0.632637039064705 22
4.092469073773155 11.243966370008117 0.627089427702953 22
4.094324087875860 11.122056479017012 0.621123128691257 22
4.085931379886500 10.986738386201313 0.614319454379675 24
4.088418695802101 10.877061665812477 0.608981186842894 25
4.093027510191726 10.774970968676222 0.604061606956058 27
4.099836835317882 10.680440106715457 0.599560714719165 27
4.102425169369613 10.576683512518535 0.594536462919842 25
4.101792884595659 10.461166978633099 0.588884179645604 27
4.105919357641862 10.365082765130996 0.584278615496225 27
4.107941328253605 10.265389610496575 0.579463707521874 29
4.106323717567324 10.158402891455632 0.574230111897580 29
4.109801780001709 10.070761840043263 0.570043235398144 27
4.101547773630830 9.951100796919949 0.564076936386449 29
4.102671312206430 9.851188257645610 0.559262028412098 29
4.106061767251231 9.763164668243942 0.555075151912662 35
4.105638577293679 9.672278355534582 0.550678931588255 33
4.106330346293470 9.580786517112442 0.546282711263848 35
4.105640604398900 9.487575648609232 0.541781819026955 36
4.109148183555200 9.405468577280097 0.537908958264977 33
4.112132934803791 9.323453446715211 0.534036097502999 36
4.111346111830611 9.234234557419668 0.529744549091077 40
4.115717993126734 9.157887857245733 0.526185704066557 35
4.115414531189978 9.068173670963954 0.521894155654636 41
4.113869068456863 8.985469362211118 0.517916622980172 37
4.115887740048190 8.907597198697637 0.514253106043166 45
4.119798671826780 8.830912425982772 0.510694261018646 46
4.120997459477727 8.757565382696187 0.507240087906612 41
4.121557650458263 8.679980251770131 0.503576570969606 45
4.121626774547560 8.602498687575631 0.499913054032599 48
4.118229483898177 8.526561224484590 0.496249537095593 43
4.123470053035774 8.461861932146855 0.493318723545989 43
4.125648713555079 8.380732603198823 0.489550534696497 48
4.125561787280889 8.307249500682044 0.486096361584462 42
4.122138066119167 8.235309240202087 0.482642188472428 46
4.126553927812789 8.172732299668954 0.479816046835309 56
4.129278672567194 8.104165702938738 0.476675889460732 54
4.129241100673987 8.034634214683797 0.473431060173670 48
4.126930490816218 7.961656011760321 0.469976887061636 54
4.124161081104012 7.888792552379361 0.466522713949601 52
4.125591121665879 7.824879835928164 0.463591900399996 46
4.134126788293173 7.775161661840203 0.461498462150279 50
4.130236983166308 7.709319952325783 0.458358304775702 50
4.121047774290284 7.628081499037735 0.454380772101238 50
4.128907333030490 7.576097615229675 0.452182661939035 61
4.132242540320004 7.519629777920435 0.449670536039373 61
4.131996115478656 7.460458741511120 0.446949066314740 61
4.135934442091783 7.403417190508274 0.444436940415079 61
4.135965954290190 7.346151685511454 0.441820142602932 65
4.136935520780615 7.288245942531590 0.439203344790785 59
4.140527467631371 7.235623966741811 0.436900562716095 59
4.076699206127893 7.069596122158888 0.427689434417337 72
4.141741471834978 7.121941507217942 0.431771639004287 63
4.146374871321997 7.072980423432955 0.429678200754569 65
4.141572383706885 7.008598874525803 0.426642715292478 59
4.143525893749540 6.956349099125475 0.424339933217789 57
4.148427043443127 6.906872299580822 0.422246494968071 61
4.153893206134598 6.861595345416274 0.420362400543325 61
4.141264370207060 6.789808554897583 0.416803555518805 60
4.144021160317052 6.741281787722508 0.414710117269087 58
4.146489885258861 6.692818920876388 0.412616679019369 58
4.150786615684969 6.647809655443117 0.410732584594623 65
4.089862985317366 6.502139926629489 0.402568175420724 66
4.127504997789925 6.511440651474712 0.404033582195526 66
4.151342897170886 6.496268853316270 0.404033582195526 66
4.152366904872949 6.448154248155100 0.401940143945809 66
4.158510211055569 6.410890484904135 0.400474737171006 66
4.150266048516128 6.349524907843580 0.397543923621401 68
4.151532933173430 6.300914950893697 0.395450485371684 66
4.151408227673071 6.253106105023952 0.393357047121966 64
4.153273901044765 6.213465770525457 0.391682296522192 70
4.153699775432806 6.165073778721500 0.389588858272474 72
4.156177496587850 6.124822875963454 0.387914107672700 70
4.150478164577595 6.070707727918550 0.385401981773038 70
4.152301680766141 6.025851705940878 0.383517887348292 67
4.151764377515737 5.982513869744904 0.381633792923546 55
4.153166503361533 5.940158470330163 0.379854370411286 57
4.155473903339834 5.899499369761880 0.378179619811512 60
4.152924928193642 5.852381542998208 0.376086181561794 60
4.148936407687047 5.803729007718572 0.373888071399591 68
4.152668315051599 5.764175671982005 0.372317992712302 63
4.159859498060286 5.731864296212768 0.371166601674958 70
4.159803370902468 5.689899210645007 0.369387179162698 68
4.151214617972425 5.636747279311473 0.366875053263036 65
4.153015609928219 5.598161628538672 0.365304974575748 71
4.158184725832112 5.564432062286366 0.364048911625917 68
4.156199451464112 5.523481776642948 0.362269489113657 71
4.156151797875247 5.483472774398945 0.360594738513883 66
4.157087685421031 5.445119215348477 0.359024659826595 77
4.156589165131746 5.405242969070398 0.357349909226820 79
4.159246144319964 5.367869012175502 0.355884502452018 79
4.160754807185949 5.331274757419501 0.354419095677216 77
