# This PCD file was generated using the MATLAB® pcwrite function
# from Computer Vision Toolbox®.
# .PCD v.7 - Point Cloud Data file format
VERSION .7
FIELDS x y z intensity
SIZE 8 8 8 1
TYPE F F F U
COUNT 1 1 1 1
WIDTH 827
HEIGHT 1
VIEWPOINT 0 0 0 1 0 0 0
POINTS 827
DATA ascii
0.610693136886235 -2.408133009182473 0.665682584003683 50
0.602704122255212 -2.410144899870287 0.665682584003683 47
0.594287474669822 -2.412234046440093 0.665682584003683 48
0.584041304118977 -2.406784333201011 0.663612031642863 48
0.574318702693974 -2.405150737657987 0.662576755462453 50
0.567623068624053 -2.408724533275826 0.663094393552658 51
0.561394307807241 -2.420100644294739 0.665682584003683 53
0.550801854222681 -2.414608123245610 0.663612031642863 50
0.540677681373147 -2.408976238167219 0.661541479282043 50
0.530599558385298 -2.403303186280705 0.659470926921223 50
0.523027023696003 -2.408916413690597 0.660506203101633 48
0.515843159510370 -2.414416017585968 0.661541479282043 48
0.506990417610501 -2.416290460114524 0.661541479282043 47
0.497022751033419 -2.408498484137775 0.658953288831018 51
0.487808327278270 -2.408410581622556 0.658435650740813 50
0.480239687498559 -2.409931189138978 0.658435650740813 50
0.472886023786793 -2.419259052720767 0.660506203101633 50
0.464132249520339 -2.417019518229187 0.659470926921223 50
0.452768827411456 -2.405414828622267 0.655847460289788 51
0.445491809664693 -2.410702411756603 0.656882736470198 51
0.436309059029171 -2.410418068020090 0.656365098379993 50
0.428651212306141 -2.413753758923205 0.656882736470198 51
0.420554172859680 -2.417138584197884 0.657400374560403 50
0.410167226153343 -2.407165447915709 0.654294546019172 50
0.401341768724592 -2.408652617486918 0.654294546019172 50
0.394596967481590 -2.417596759363099 0.656365098379993 50
0.386460115010040 -2.420867127711443 0.656882736470198 51
0.377113722882940 -2.416475132118937 0.655329822199582 50
0.367090844866919 -2.410201783665554 0.653259269838762 50
0.358947415782861 -2.407521674834757 0.652223993658352 48
0.351376032415713 -2.414495110473954 0.653776907928967 51
0.342524105319802 -2.415766750316286 0.653776907928967 57
0.334353939441605 -2.418861320999913 0.654294546019172 50
0.324877144734578 -2.412355426326199 0.652223993658352 55
0.315952164900672 -2.409643849975347 0.651188717477942 50
0.307959760726929 -2.410678336071083 0.651188717477942 50
0.299122114427224 -2.411790872959349 0.651188717477942 47
0.292511185468691 -2.424277181641008 0.654294546019172 50
0.281828713327408 -2.409982796435110 0.650153441297532 47
0.274053394582641 -2.412823632876247 0.650671079387737 45
0.265841068043493 -2.419572769857903 0.652223993658352 47
0.257816013912721 -2.420441026975560 0.652223993658352 48
0.249338069863773 -2.425213156257886 0.653259269838762 47
0.239382402258710 -2.406802990391256 0.648082888936712 48
0.230743573323546 -2.409587259202349 0.648600527026917 44
0.222751825317324 -2.410339183737054 0.648600527026917 45
0.215363167814690 -2.422647628538023 0.651706355568147 43
0.206905237375428 -2.423384626686136 0.651706355568147 39
0.196920704601421 -2.410648627479070 0.648082888936712 40
0.188774723880914 -2.409362436313762 0.647565250846507 43
0.180074978756063 -2.406153776026017 0.646529974666097 43
0.172774436233653 -2.422183341663579 0.650671079387737 43
0.163765143733213 -2.420872875734497 0.650153441297532 40
0.155116370039510 -2.411763288061635 0.647565250846507 43
0.146227745566191 -2.404576894310827 0.645494698485687 44
0.138496506529155 -2.416644796824644 0.648600527026917 43
0.130059998180914 -2.417113516824063 0.648600527026917 44
0.121427775954420 -2.413693961777852 0.647565250846507 44
0.112821013782688 -2.410243641358131 0.646529974666097 39
0.104324161512189 -2.399024351170339 0.643424146124867 44
0.096145435901996 -2.414833182861980 0.647565250846507 43
0.088418844903752 -2.422861001183737 0.649635803207327 43
0.079157760060678 -2.411583927811851 0.646529974666097 45
0.071046276816043 -2.407971142015089 0.645494698485687 45
0.062270040046045 -2.410146572950371 0.646012336575892 47
0.054233872136006 -2.408408454008582 0.645494698485687 45
0.045624723934151 -2.420180105055477 0.648600527026917 45
0.038382352044652 -2.416441607187648 0.647565250846507 44
0.029383784400136 -2.404975809902519 0.644459422305277 45
0.021056106657747 -2.412790838889827 0.646529974666097 45
0.012583191093427 -2.403190513014692 0.643941784215072 47
0.003790145745614 -2.412879737295973 0.646529974666097 51
-0.005073756332863 -2.422536659105834 0.649118165117122 47
-0.012222422662634 -2.414783634036521 0.647047612756302 47
-0.020585431257513 -2.406999134105275 0.644977060395482 50
-0.029407385833387 -2.406907517380352 0.644977060395482 47
-0.038474396054349 -2.422236431185699 0.649118165117122 50
-0.046083873851026 -2.422103607256688 0.649118165117122 48
-0.054059906226988 -2.400683005880247 0.643424146124867 44
-0.063379260138383 -2.404320095658285 0.644459422305277 45
-0.071944460770115 -2.409877186820161 0.646012336575892 47
-0.080319811246392 -2.421210097376171 0.649118165117122 47
-0.088629341945133 -2.417053869654919 0.648082888936712 50
-0.096755779816736 -2.409008588623920 0.646012336575892 50
-0.105753793860277 -2.412497776560743 0.647047612756302 47
-0.113092001005544 -2.416032857470280 0.648082888936712 48
-0.122141247110971 -2.419460915879642 0.649118165117122 47
-0.130163797062141 -2.419042577890961 0.649118165117122 53
-0.138585682864273 -2.410834584813196 0.647047612756302 50
-0.146345009195354 -2.406505183720860 0.646012336575892 50
-0.155412969400848 -2.409808331749308 0.647047612756302 50
-0.163823823435493 -2.409251157870708 0.647047612756302 48
-0.173481804722451 -2.420195976816592 0.650153441297532 50
-0.180350417515745 -2.404195871366070 0.646012336575892 47
-0.189043998878347 -2.407403529388967 0.647047612756302 50
-0.198236038709267 -2.416355891864448 0.649635803207327 51
-0.206926081447813 -2.413688298959009 0.649118165117122 50
-0.214678932174295 -2.414950574912803 0.649635803207327 51
-0.222574050516591 -2.408415529161047 0.648082888936712 50
-0.231030191415111 -2.403737597467966 0.647047612756302 50
-0.240798133458249 -2.412486182782027 0.649635803207327 22
-0.251542527948331 -2.442464788950546 0.657918012650608 56
-0.257202166260549 -2.414678072149429 0.650671079387737 44
-0.265415710428047 -2.407958493905773 0.649118165117122 53
-0.274037793957199 -2.408936821644404 0.649635803207327 51
-0.282669938834623 -2.409884272833077 0.650153441297532 50
-0.291775538112325 -2.414636589938815 0.651706355568147 51
-0.301209820495476 -2.425158478858441 0.654812184109378 51
-0.308380498776005 -2.410624550236742 0.651188717477942 53
-0.315869744975218 -2.405757844625736 0.650153441297532 53
-0.325719195823185 -2.412241875842605 0.652223993658352 53
-0.333824898398185 -2.415034008783141 0.653259269838762 50
-0.343217263583493 -2.417619605526855 0.654294546019172 50
-0.350120996750743 -2.408821112023601 0.652223993658352 53
-0.359232294684276 -2.409432406322722 0.652741631748557 51
-0.367672605318371 -2.414021437839351 0.654294546019172 48
-0.377113722882940 -2.416475132118937 0.655329822199582 50
-0.385124969693147 -2.415211291347967 0.655329822199582 50
-0.392931556945180 -2.410038887363895 0.654294546019172 48
-0.401341768724592 -2.408652617486918 0.654294546019172 50
-0.410816224928900 -2.410974254004184 0.655329822199582 50
-0.419470670525415 -2.413405314943510 0.656365098379993 48
-0.428904835536562 -2.417632836202228 0.657918012650608 51
-0.436997243664862 -2.414219989263024 0.657400374560403 48
-0.444438637537824 -2.405003351681529 0.655329822199582 50
-0.455270312645773 -2.418704413310788 0.659470926921223 48
-0.462982433165987 -2.413305981514409 0.658435650740813 48
-0.472144823122551 -2.415467110631862 0.659470926921223 47
-0.479819067846256 -2.410014970070657 0.658435650740813 47
-0.487808327278269 -2.408410581622556 0.658435650740813 47
-0.496992485171189 -2.410477248643726 0.659470926921223 48
-0.506618059934336 -2.412420713103880 0.660506203101633 48
-0.517072472479936 -2.418104237067611 0.662576755462453 48
-0.521787447932414 -2.405231788357588 0.659470926921223 50
-0.531432524724993 -2.407076032726986 0.660506203101633 47
-0.540257227470706 -2.409070567533254 0.661541479282043 50
-0.550372211590683 -2.412724653570691 0.663094393552658 45
-0.558790839261358 -2.410788796887156 0.663094393552658 45
-0.566736849937676 -2.404963839234803 0.662059117372248 45
-0.574767389180454 -2.407029761671782 0.663094393552658 45
-0.584952444999037 -2.410539066950155 0.664647307823273 48
-0.595170928154183 -2.414005971484358 0.666200222093888 43
-0.605000733981056 -2.417535906818708 0.667753136364504 47
-0.611058165014408 -2.406047280021143 0.665164945913478 44
-0.619872664779518 -2.403791478932201 0.665164945913478 44
-0.628817699991966 -2.405460780029237 0.666200222093888 45
-0.639190946291525 -2.410720453762453 0.668270774454709 45
-0.649186879349237 -2.416050268774223 0.670341326815529 43
-0.655497099366052 -2.404335521843418 0.667753136364504 50
-0.664495189455840 -2.405872856664645 0.668788412544914 41
-0.673410016693590 -2.405399002244733 0.669306050635119 44
-0.683804602621125 -2.408489882611047 0.670858964905734 41
-0.693809967755815 -2.411657934572232 0.672411879176349 39
-0.701142821724022 -2.405512045385454 0.671376602995939 44
-0.709535354147576 -2.403049944999959 0.671376602995939 44
-0.719159853327549 -2.406236682072922 0.672929517266554 41
-0.727414340940680 -2.401735755934938 0.672411879176349 44
-0.737219158293879 -2.406827239789382 0.674482431537169 44
-0.744890564720986 -2.400418916675075 0.673447155356759 44
-0.754582547834249 -2.403465016285241 0.675000069627374 40
-0.765142876663402 -2.406206233528203 0.676552983897989 43
-0.773117937062760 -2.403655698175291 0.676552983897989 43
-0.784315612810545 -2.408153465943815 0.678623536258809 43
-0.790669116565736 -2.402007597388710 0.677588260078399 45
-0.800689097406809 -2.402759052699512 0.678623536258809 43
-0.813587100318447 -2.414736522940393 0.682764640980450 45
-0.819518315749901 -2.404567588542426 0.680694088619630 43
-0.830845614777431 -2.408852840966411 0.682764640980450 44
-0.837759135903439 -2.400319606553121 0.681211726709835 47
-0.847222781914640 -2.403141694289302 0.682764640980450 43
-0.856903506099983 -2.403809071978130 0.683799917160860 43
-0.867909248481253 -2.408072929842204 0.685870469521680 43
-0.879376177812312 -2.412135711005388 0.687941021882500 44
-0.884699482084788 -2.401955146424890 0.685870469521680 43
-0.891730437334794 -2.395231426207481 0.684835193341270 39
-0.906208956062400 -2.408376930623688 0.689493936153115 40
-0.918043461088226 -2.414227523161030 0.692082126604140 39
-0.927850981228103 -2.414614839387692 0.693117402784550 39
-0.930680037651206 -2.396954385929169 0.688976298062910 39
-0.943559919775168 -2.406444731079277 0.692599764694346 41
-0.955220798804423 -2.410154015023504 0.694670317055166 40
-0.966078867866282 -2.414147423408036 0.696740869415986 40
-0.977093600224056 -2.415963138805277 0.698293783686601 44
-0.982909116766205 -2.407344144293320 0.696740869415986 41
-0.994673051537525 -2.410868747430956 0.698811421776806 40
-1.002563944604731 -2.409690520171444 0.699329059867011 39
-1.014383658348265 -2.413123365607867 0.701399612227831 39
-1.027329858324870 -2.420237477216026 0.704505440769061 39
-1.033148182850563 -2.409353867703846 0.702434888408241 38
-1.042246123145165 -2.409642451967198 0.703470164588651 38
-1.055289631000923 -2.416612124573255 0.706575993129882 38
-1.065277314622551 -2.416449158268315 0.707611269310292 38
-1.076484152843393 -2.417822993811390 0.709164183580907 38
-1.083333550807946 -2.410526471167166 0.708128907400497 38
-1.095731540784461 -2.415526774298232 0.710717097851522 37
-1.102511142706355 -2.410315727775733 0.710199459761317 37
-1.114578038557630 -2.413273964098680 0.712270012122137 36
-1.123390439657960 -2.411315758209585 0.712787650212342 37
-1.128512929487885 -2.400386588614464 0.710717097851522 35
-1.146836440098149 -2.415231933236570 0.716411116843777 36
-1.156094911511821 -2.412956219230943 0.716928754933982 35
-1.168292697802137 -2.417806348235118 0.719516945385008 35
-1.177571864277962 -2.415450000116045 0.720034583475213 35
-1.184290941532092 -2.407857753671223 0.718999307294803 35
-1.199121011161079 -2.415613612976045 0.722622773926238 36
-1.207989584032906 -2.413351426828819 0.723140412016443 38
-1.221181987971924 -2.417529430599255 0.725728602467468 36
-1.231854120005428 -2.420782480368049 0.727799154828288 36
-1.238071120533588 -2.411095663505816 0.726246240557673 35
-1.246479872270697 -2.406759299576896 0.726246240557673 35
-1.262450476870538 -2.415871916990880 0.730387345279314 35
-1.272255641936596 -2.415090584300615 0.731422621459724 35
-1.286538756107077 -2.420646604767753 0.734528450000954 35
-1.290909621214670 -2.409555514620901 0.732457897640134 35
-1.303903885784104 -2.413533075186458 0.735046088091159 35
-1.311900280575085 -2.409195903659330 0.735046088091159 34
-1.327232212703489 -2.416223901563786 0.738669554722594 35
-1.343146245451740 -2.425095974914172 0.742810659444235 33
-1.345010040767712 -2.408585951178734 0.739187192812799 34
-1.354884747992193 -2.407479598263655 0.740222468993209 34
-1.373235861475939 -2.419298208847197 0.745398849895260 34
-1.385087801242038 -2.421438678872838 0.747469402256080 35
-1.392566711468350 -2.414915529810456 0.746951764165875 33
-1.404871398006957 -2.416720489507830 0.749022316526695 35
-1.413298767846540 -2.411801849685923 0.749022316526695 33
-1.431534134205422 -2.423487228644195 0.754198697428745 33
-1.438008318197682 -2.415155675663119 0.753163421248335 33
-1.450978460691502 -2.418656860330365 0.755751611699361 32
-1.459833535296633 -2.413322512768891 0.755751611699361 32
-1.473860545885329 -2.418366075819394 0.758857440240591 32
-1.487771407842161 -2.421177562573221 0.761445630691616 31
-1.499859557449821 -2.422800929945229 0.763516183052436 31
-1.512820962314690 -2.423842752024258 0.765586735413256 31
-1.517950528016294 -2.416071865793727 0.764551459232846 31
-1.528863106440219 -2.413756108708011 0.765586735413256 30
-1.537898124289118 -2.410301526408445 0.766104373503461 30
-1.554037568227571 -2.416021996724907 0.769727840134897 30
-1.562040841259925 -2.410855338330621 0.769727840134897 29
-1.570446780371217 -2.405388110501701 0.769727840134897 29
-1.586265887438897 -2.411188978630770 0.773351306766332 30
-1.600431011112825 -2.413408891034931 0.775939497217357 31
-1.609498362595944 -2.409694864050416 0.776457135307562 33
-1.624371561615662 -2.413678233569998 0.779562963848792 33
-1.628450223137231 -2.401597680887230 0.777492411487972 31
-1.645961908673538 -2.408372571163682 0.781633516209613 33
-1.652424853023737 -2.401598236603956 0.781115878119408 33
-1.670703283605855 -2.410104724539778 0.785774620931253 33
-1.686163978075795 -2.413466941037251 0.788880449472483 31
-1.693466349177746 -2.405986658697846 0.788362811382278 33
-1.705206799682059 -2.404788330952297 0.789915725652893 31
-1.719205337159914 -2.406681231829596 0.792503916103919 32
-1.737329953954825 -2.415081018583368 0.797162658915764 31
-1.754107135436625 -2.419645787825446 0.800786125547199 32
-1.760982268248336 -2.412255334515449 0.800268487456994 31
-1.770956566156748 -2.407340944261407 0.800786125547199 33
-1.787707910141582 -2.414185697494904 0.804927230268839 32
-1.804631673213224 -2.418455353025505 0.808550696900275 30
-1.820764871666163 -2.423268951271829 0.812174163531710 29
-1.828468251689401 -2.415039034316449 0.811656525441505 27
-1.842322836405344 -2.416643976488978 0.814244715892530 25
-1.858228939439963 -2.419067443487607 0.817350544433760 25
-1.873332117035880 -2.422060717514446 0.820456372974991 28
-1.884149753567564 -2.418554770208693 0.821491649155401 30
-1.893773158680846 -2.413482951077538 0.822009287245606 29
-1.912191214160964 -2.418649269807010 0.826150391967246 29
-1.921404363897463 -2.413806379657804 0.826668030057451 29
-1.945527644124390 -2.426679023737397 0.833397325230117 29
-1.948710529171418 -2.414201124638785 0.831326772869297 29
-1.968515987654347 -2.420531558133578 0.835985515681142 29
-1.975308077204318 -2.412495684067658 0.835467877590937 31
-1.987404431162202 -2.410057223592067 0.837020791861552 30
-2.008569617735879 -2.417616183950078 0.842197172763603 33
-2.029393464077130 -2.425406404813237 0.847373553665653 36
-2.034112747489542 -2.413875882574313 0.845820639395038 35
-2.046276402630278 -2.411179575350316 0.847373553665653 32
-2.071829422270408 -2.424943436110773 0.854620486928524 31
-2.081963636737034 -2.418797677037945 0.855138125018729 33
-2.098829030233273 -2.422100169389477 0.858761591650164 32
-2.114044671400534 -2.421667954158299 0.861349782101189 30
-2.124614145190430 -2.417546430848719 0.862385058281599 27
-2.146266511293021 -2.424207336789426 0.867561439183649 27
-2.164576696300976 -2.428614090542134 0.871702543905290 27
-2.178626093953620 -2.426414004036807 0.873773096266110 27
-2.186238134744264 -2.419557685700314 0.873773096266110 27
-2.202894030638293 -2.420100254329746 0.876878924807340 30
-2.218315465175118 -2.421714956562592 0.879984753348571 30
-2.234614449578022 -2.422476684287105 0.883090581889801 30
-2.253575294991366 -2.425984815302272 0.887231686611441 30
-2.266411787712962 -2.421940449670607 0.888784600882056 31
-2.268227633222640 -2.406984695843407 0.886196410431031 27
-2.301881938506315 -2.425677437541170 0.896031534144927 28
-2.319677885327080 -2.427404248966901 0.899655000776362 30
-2.336597940209727 -2.427236484328931 0.902760829317592 30
-2.347821148042088 -2.424456332863889 0.904313743588207 28
-2.363013536333943 -2.423161552422465 0.906901934039233 33
-2.382709493194090 -2.425509441863321 0.911043038760873 30
-2.402030501173251 -2.428164626822398 0.915184143482513 30
-2.417732231253628 -2.426186472846542 0.917772333933539 28
-2.431660102790921 -2.423186787894922 0.919842886294359 28
-2.446969584367222 -2.421478218327817 0.922431076745384 30
-2.465475222439477 -2.421970047343311 0.926054543376819 26
-2.496146888642688 -2.437589378487516 0.934854390910305 22
-2.923962135380334 -2.834506174032229 1.091181094152228 48
-2.905515016041803 -2.797993675394776 1.080828332348127 27
-2.917147092044984 -2.788660562992613 1.081345970438332 24
-2.938499090478084 -2.791457120942014 1.086004713250177 24
-2.957143473606566 -2.788620573736220 1.089110541791407 22
-2.989421229686811 -2.799408841351217 1.097392751234688 26
-3.006736169983539 -2.795009755267579 1.099980941685713 27
-3.029692698135265 -2.798658508499476 1.105157322587764 26
-3.046561515876868 -2.794595285246233 1.107745513038789 22
-3.076781407210373 -2.801619534650413 1.114992446301659 24
-3.101360801818888 -2.803277898372256 1.120168827203710 26
-3.121650030160673 -2.803848117529173 1.124309931925350 22
-3.135743431754101 -2.796792087690206 1.125862846195965 21
-3.165733766568428 -2.803761035984205 1.133109779458836 24
-3.184694115067314 -2.799792400445550 1.136215608000066 9
-3.214332556278911 -2.807006169279646 1.143462541262937 6
-3.238706596453631 -2.808425218619038 1.148638922164987 6
-3.265084031352675 -2.810398855885946 1.154332941157242 6
-3.636138418353159 -3.107751359783881 1.281671911347683 4
-3.677895784758544 -3.121290273285160 1.292542311241988 6
-3.685814153624792 -3.105943271105513 1.291507035061578 6
-3.690167965909421 -3.088743747942879 1.289436482700758 6
-3.695520251680297 -3.070259766016677 1.287365930339938 6
-3.723561528173343 -3.072743167143301 1.293577587422399 6
-3.734798684435722 -3.059074992878672 1.293577587422399 6
-3.747387316843115 -3.049765537046658 1.294612863602809 7
-3.746517576548948 -3.026298843164690 1.290471758881168 6
-3.765573538423009 -3.021111873474213 1.293577587422399 6
-3.773598668405645 -3.004883269522522 1.292542311241988 6
-3.782497713142714 -2.993673566660092 1.292542311241988 6
-3.808636678055771 -2.991723391396382 1.297718692144039 7
-3.806351450437802 -2.969570618973136 1.293577587422399 6
-3.813639419697730 -2.953899922166757 1.292542311241988 6
-3.839756529580406 -2.951676132234804 1.297718692144039 7
-3.859764687091458 -2.944613408694886 1.300824520685269 7
-3.855649987853653 -2.921297904602320 1.296165777873424 5
-3.865823730579476 -2.907821376969081 1.296165777873424 3
-3.863567141445668 -2.885062423502892 1.292024673151783 3
-3.894293157759769 -2.885834875939186 1.298753968324449 7
-3.902838448057606 -2.874267589860900 1.298753968324449 7
-3.909728687249585 -2.858346338034914 1.297718692144039 7
-3.911786758468932 -2.835825433566257 1.294612863602809 7
-3.921661804588354 -2.822153472762767 1.294612863602809 7
-3.937776933855740 -2.812938843622196 1.296683415963629 7
-3.957027194640377 -2.805880913500428 1.299789244504859 7
-3.963150926167976 -2.790519103352530 1.298753968324449 7
-3.957515673000060 -2.764910617592789 1.293577587422399 6
-3.982053429894229 -2.763478353674784 1.298753968324449 7
-3.985790801500707 -2.744482429427677 1.296683415963629 7
-3.994869917974690 -2.731249980727833 1.296683415963629 7
-4.017643568483911 -2.725265440833939 1.300824520685269 7
-4.013840132867012 -2.703294195338536 1.296683415963629 7
-4.026933793100101 -2.690711136864826 1.297718692144039 7
-4.035834371324087 -2.677342548741023 1.297718692144039 7
-4.039165295826183 -2.658284335971168 1.295648139783219 7
-4.047496596164585 -2.645581826727797 1.295648139783219 7
-4.063189692622497 -2.635642562607128 1.297718692144039 7
-4.064243059194049 -2.616215078959949 1.295130501693014 5
-4.083573983825588 -2.607539443514276 1.298236330234244 3
-4.098725075634370 -2.598120621803757 1.300306882595064 3
-4.114310272042834 -2.587911900022981 1.302377434955884 5
-4.108121532013217 -2.565045745063691 1.297718692144039 7
-4.124064898795226 -2.554040060452188 1.299789244504859 7
-4.125928672011796 -2.536303370957611 1.297718692144039 7
-4.131458316879191 -2.519873864830272 1.296683415963629 7
-4.150584129837455 -2.510713703513594 1.299789244504859 7
-4.152697106168140 -2.492233725091353 1.297718692144039 7
-4.160938818087044 -2.478449182088743 1.297718692144039 7
-4.176217546667825 -2.467840943572594 1.299789244504859 7
-4.174379725572137 -2.448114790098124 1.296683415963629 7
-4.196684394814959 -2.440567896351286 1.300824520685269 7
-4.198061730143186 -2.422775235070041 1.298753968324449 7
-4.206913447719323 -2.407372296334702 1.298753968324449 7
-4.211513647431358 -2.391500573606327 1.297718692144039 7
-4.223617420840951 -2.377944072540462 1.298753968324449 7
-4.244557945142330 -2.372203254141883 1.302895073046089 7
-4.236326005186599 -2.347267384393973 1.297718692144039 7
-4.247879802087983 -2.334326308975343 1.298753968324449 7
-4.259799914648524 -2.320589711049741 1.299789244504859 7
-4.285357574102762 -2.318050886156088 1.305483263497115 3
-4.272994315760931 -2.292119732963238 1.299271606414654 3
-4.286483824974272 -2.279163878403191 1.300824520685269 7
-4.293099550256036 -2.262537129566569 1.300306882595064 7
-4.298082024867681 -2.248893689656945 1.299789244504859 7
-4.312765212148705 -2.237435427936368 1.301859796865679 7
-4.327420693029802 -2.225902017139015 1.303930349226500 7
-4.321780850693474 -2.203007534814324 1.299789244504859 7
-4.322166367374428 -2.185177358659318 1.297718692144039 7
-4.336676012863200 -2.173539297856477 1.299789244504859 7
-4.354994697815289 -2.162785613654979 1.302895073046089 7
-4.348651926963941 -2.140744858191722 1.298753968324449 7
-4.357463023415992 -2.127159912260255 1.299271606414654 7
-4.361383672607853 -2.110253750421867 1.298236330234244 7
-4.367346783736855 -2.093419276361836 1.297718692144039 7
-4.376735324102107 -2.078226728154737 1.298236330234244 5
-4.391620076303585 -2.069348852125041 1.300824520685269 7
-4.388671718738691 -2.048336579081463 1.297718692144039 7
-4.391933583407613 -2.032149482125087 1.296683415963629 7
-4.420427025307235 -2.025696261181734 1.302895073046089 7
-4.413049070113588 -2.004634638663885 1.298753968324449 7
-4.439746628155259 -1.997164321273894 1.304447987316705 5
-4.412821022316549 -1.967483712358318 1.294612863602809 7
-4.435908217540580 -1.958318558948122 1.299271606414654 5
-4.452656975166804 -1.949021005124402 1.302377434955884 5
-4.454115911796242 -1.931161052493414 1.300824520685269 7
-4.461164053451768 -1.914822930344666 1.300824520685269 7
-4.459262189419884 -1.894681808871902 1.298236330234244 5
-4.472314011648422 -1.883662759702252 1.300306882595064 3
nan nan nan 0
nan nan nan 0
nan nan nan 0
-4.491015403565601 -1.818136154361499 1.298236330234244 5
-4.500920913469297 -1.803885867636698 1.299271606414654 5
-4.514685524396531 -1.790225461107629 1.301342158775474 5
-4.524503657209887 -1.775867020024894 1.302377434955884 5
-4.541479496555012 -1.764260023664132 1.305483263497115 5
-4.536791188168680 -1.744237005648244 1.302377434955884 5
-4.531717550741943 -1.725059225957804 1.299271606414654 5
-4.548857602325421 -1.712521979620686 1.302377434955884 5
-4.561158661462535 -1.701718870245815 1.304447987316705 3
-4.560115350564633 -1.682315370690802 1.302377434955884 3
-4.562039728650441 -1.665858967622591 1.301342158775474 5
-4.562663553715711 -1.647159134833004 1.299789244504859 7
-4.586292999376725 -1.638519221850752 1.304965625406910 7
-4.599554089616465 -1.624271715784885 1.307036177767730 7
-4.600986948444683 -1.608538698724651 1.306000901587320 7
-4.592244097660315 -1.586617539550364 1.301859796865679 7
-4.590441916970936 -1.568080012877432 1.299789244504859 7
-4.610529984751806 -1.556991619781744 1.303930349226500 7
-4.615667804766532 -1.541693990520741 1.303930349226500 7
-4.628625682001694 -1.527187591937372 1.306000901587320 7
-4.617135444299923 -1.506437145978200 1.301342158775474 7
-4.624204411951910 -1.490903962631179 1.301859796865679 7
-4.649628253068625 -1.481203607510244 1.307553815857935 7
-4.653183060250787 -1.463572286496790 1.307036177767730 7
-4.656166099296866 -1.447560209883346 1.306518539677525 7
-4.651956922993424 -1.428462961010755 1.303930349226500 7
-4.647917187581354 -1.408601577160638 1.301342158775474 7
-4.669462630669644 -1.397353350385234 1.306000901587320 7
-4.685427936669495 -1.384329664281300 1.309106730128550 7
-4.697649921817167 -1.370129682159669 1.311177282489370 7
-4.683368425237003 -1.350014014203626 1.306000901587320 7
-4.686426798275455 -1.332311267360074 1.305483263497115 5
-4.705698814130251 -1.320940076180891 1.309624368218755 5
-4.710508694267341 -1.303683955335577 1.309624368218755 3
-4.725987324101676 -1.291110856179581 1.312730196759985 3
-4.726956912115945 -1.272776015772233 1.311694920579575 3
-4.716215051005590 -1.253125137926654 1.307553815857935 5
-4.720776306333190 -1.235830928646199 1.307553815857935 5
-4.739812403722717 -1.224033828307872 1.311694920579575 5
-4.749883608257663 -1.208081881441175 1.313247834850190 7
-4.738873131499056 -1.188564265274902 1.309106730128550 7
-4.735491355712619 -1.170161548666414 1.307036177767730 7
-4.739547131544643 -1.153624470039222 1.307036177767730 7
-4.751258383231161 -1.138045405468404 1.309106730128550 7
-4.773611353446895 -1.127554233863117 1.314283111030600 7
-4.762464941965433 -1.107384124798132 1.310142006308960 7
-4.779483604243348 -1.093769975305011 1.313765472940395 3
-4.779690896423971 -1.075396840778467 1.312730196759985 3
-4.773800100479582 -1.057451901490495 1.310142006308960 7
-4.788787686272338 -1.043249069047135 1.313247834850190 7
-4.777466632684086 -1.022455936812104 1.309106730128550 7
-4.769663725162086 -1.003387060872344 1.306000901587320 7
-4.792055639582215 -0.990642660615864 1.311177282489370 7
-4.784125212021745 -0.971602298815670 1.308071453948140 7
-4.791109792782629 -0.956488642187936 1.309106730128550 7
-4.786999951689105 -0.937436873893291 1.307036177767730 7
-4.797348046879762 -0.924691995331995 1.309106730128550 7
-4.789315416679504 -0.904950542631550 1.306000901587320 7
-4.819038142076542 -0.893155926741104 1.313247834850190 7
-4.810874672480196 -0.873416744168158 1.310142006308960 7
-4.798380007397967 -0.855585734837019 1.306000901587320 7
-4.809095996407547 -0.839321612198153 1.308071453948140 7
-4.808188011171042 -0.821878628045152 1.307036177767730 7
-4.814978877440255 -0.804887247488860 1.308071453948140 7
-4.832734974830265 -0.792256816898179 1.312212558669780 7
-4.816396188145420 -0.772323888549737 1.307036177767730 7
-4.815245679073541 -0.754908401871851 1.306000901587320 7
-4.833257201999490 -0.739592281344798 1.310142006308960 7
-4.828040875242809 -0.722417039078297 1.308071453948140 7
-4.849648850514811 -0.708351714165821 1.313247834850190 7
-4.832846327363363 -0.689537125509901 1.308071453948140 7
-4.839168087917196 -0.672350939625996 1.309106730128550 7
-4.841485548808127 -0.655454994499390 1.309106730128550 7
-4.855235699855363 -0.640066012001361 1.312212558669780 7
-4.861272667521244 -0.623605785951486 1.313247834850190 7
-4.859585848623874 -0.606154749815504 1.312212558669780 7
-4.865507756050495 -0.589652779247041 1.313247834850190 7
-4.863699148033978 -0.572213944502294 1.312212558669780 7
-4.877086077444893 -0.557398361549269 1.315318387211010 7
-4.879096286124312 -0.539519203543827 1.315318387211010 7
-4.873083932949007 -0.523363264564415 1.313247834850190 7
-4.871126325950536 -0.505100502376458 1.312212558669780 7
-4.890074307653453 -0.490680385751965 1.316871301481626 5
-4.961064044952325 -0.479443987742840 1.335506272729007 1
-4.891536782397390 -0.455496365879446 1.316353663391421 7
-4.877780015918900 -0.436188396420098 1.312212558669780 7
-4.879126269066820 -0.420862271261527 1.312212558669780 7
-4.872934833412196 -0.402340692228358 1.310142006308960 7
-4.885797150810815 -0.387094724053700 1.313247834850190 7
-4.894823948176720 -0.370621176702424 1.315318387211010 7
-4.865258475929586 -0.351306692793690 1.307036177767730 7
-4.885786720723314 -0.334792951647791 1.312212558669780 7
-4.875247967103602 -0.318686096942321 1.309106730128550 7
-4.895612343045604 -0.302859192826081 1.314283111030600 7
-4.900496833534780 -0.285993574718417 1.315318387211010 7
-4.882222439189666 -0.266975612327506 1.310142006308960 7
-4.879222300235208 -0.250585941384549 1.309106730128550 7
-4.887785854728503 -0.233922149869867 1.311177282489370 7
-4.888572617347925 -0.216859168124962 1.311177282489370 7
-4.900881258739722 -0.200266801526086 1.314283111030600 7
-4.893828445217574 -0.182869761438719 1.312212558669780 7
-4.886713987472080 -0.165524402882047 1.310142006308960 7
-4.898821721075971 -0.149672540486020 1.313247834850190 7
-4.887750470641453 -0.131404946820879 1.310142006308960 7
-4.899747243210823 -0.115468943483650 1.313247834850190 7
-4.900137547390705 -0.097509696508049 1.313247834850190 7
-4.892707614141481 -0.081131599304840 1.311177282489370 7
-4.900698875068104 -0.063298184551381 1.313247834850190 7
-4.904720033741817 -0.049651733820774 1.314283111030600 7
-4.904869072387782 -0.031674702738215 1.314283111030600 7
-4.901083456613845 -0.015397258436912 1.313247834850190 7
-4.897243267981977 0.002564190813246 1.312212558669780 7
-4.908798862582167 0.018848527174521 1.315318387211010 7
-4.928021160354170 0.036124928893713 1.320494768113061 7
-4.924001560531360 0.053284904368587 1.319459491932651 7
-4.900593400559552 0.070996103086400 1.313247834850190 7
-4.919661691734714 0.086731921436235 1.318424215752241 7
-4.923191810317781 0.103985806573594 1.319459491932651 7
-4.928634684401972 0.119592518022369 1.321012406203266 5
-4.951336432657495 0.138303349467337 1.327224063285726 1
-4.910328197987178 0.152597578381804 1.316353663391421 7
-4.909765617634496 0.169736892778661 1.316353663391421 7
-4.909077682876168 0.188587741815702 1.316353663391421 7
-4.912249795208036 0.205884266937535 1.317388939571831 7
-4.915438537647898 0.221489435242391 1.318424215752241 7
-4.916565026814625 0.238739865305251 1.318941853842446 5
-4.911887790366085 0.254842279474437 1.317906577662036 5
-3.167215977580315 0.175965862877160 0.849961744116678 1
-3.120330775654007 0.183742289254294 0.837538429951757 3
-2.976958313933614 0.186251096893561 0.799233211276584 5
nan nan nan 0
-2.989039506137331 0.208489773103615 0.802856677908019 64
-2.990334510451797 0.217497641355936 0.803374315998224 87
-2.954845020027747 0.225806682258902 0.794056830374534 55
-2.929045395316135 0.233607415315306 0.787327535201868 50
-2.918543703733128 0.243538108311068 0.784739344750843 52
-2.921569290020316 0.253549065686574 0.785774620931253 56
-2.932210575539616 0.264788174082092 0.788880449472483 59
-2.935115237255781 0.275382807007264 0.789915725652893 56
-2.930240733929514 0.285763674494008 0.788880449472483 56
-2.925432800445006 0.295091363819542 0.787845173292073 56
-2.920542098070444 0.304900047893441 0.786809897111663 54
-2.930984189576488 0.316336572054069 0.789915725652893 54
-2.925965221853335 0.326648368960967 0.788880449472483 54
-2.930623538973420 0.337011528432897 0.790433363743098 57
-2.923674031002706 0.346557061507168 0.788880449472483 54
-2.922508731020728 0.356250408487776 0.788880449472483 56
-2.925081038084006 0.366930602440917 0.789915725652893 52
-2.935278258515828 0.378621657684591 0.793021554194124 56
-2.937768946802781 0.389373041358579 0.794056830374534 54
-2.924837128292618 0.398572810989264 0.790951001833303 56
-2.923356640347324 0.409290197825577 0.790951001833303 56
-2.929778939239123 0.419056299051115 0.793021554194124 59
-2.928223342363846 0.429791660946373 0.793021554194124 56
-2.938167541856515 0.441733727985308 0.796127382735354 59
-2.919344923235535 0.449851765803519 0.791468639923508 57
-2.923642416514894 0.459921553026694 0.793021554194124 61
-2.929566160757817 0.471862958746207 0.795092106554944 56
-2.931797779907616 0.482202206742907 0.796127382735354 52
-2.930010728150700 0.492944543920264 0.796127382735354 52
-2.920743934253214 0.501350796008749 0.794056830374534 54
-2.922781804690906 0.512209980634690 0.795092106554944 52
-2.924779405844022 0.523089492926065 0.796127382735354 56
-2.934245048497960 0.535888299328997 0.799233211276584 54
-2.943847383642300 0.547735928168501 0.802339039817814 52
-2.919141358090063 0.553688470122917 0.796127382735354 56
-2.922881069447354 0.564974687605347 0.797680297005969 50
-2.928372247546035 0.577178099670526 0.799750849366789 50
-2.935912841394806 0.588785065127596 0.802339039817814 52
-2.941410910643422 0.600575609527090 0.804409592178635 52
-2.927947954975829 0.608480937526718 0.801303763637404 54
-2.929586233338024 0.619497027128101 0.802339039817814 52
-2.934960533088452 0.631344499638787 0.804409592178635 54
-2.936513287406114 0.642411298874343 0.805444868359045 54
-2.940024348416391 0.653402945776641 0.806997782629660 50
-2.933841177210846 0.663322233232175 0.805962506449250 50
-2.933508258108105 0.673479826034285 0.806480144539455 52
-2.947951565817362 0.688179679314537 0.811138887351300 57
-2.951292683695738 0.699287874012223 0.812691801621915 56
-2.939319046573728 0.707838739838950 0.810103611170890 25
-2.938832256301639 0.718040499949274 0.810621249261095 23
nan nan nan 0
-4.809234611864913 1.209781051247197 1.328776977556342 7
-4.812255218122588 1.229312233635265 1.330847529917162 7
-4.815632807091118 1.247200887268813 1.332918082277982 7
-4.796302352483158 1.260075984804393 1.328776977556342 7
-4.799341532613449 1.278800103786743 1.330847529917162 7
-4.798352031953714 1.297390445574238 1.331882806097572 7
-4.790296939652134 1.312274392828267 1.330847529917162 7
-4.804301170653893 1.334156801644010 1.336023910819212 7
-4.779159279325760 1.345161314395474 1.330329891826957 5
-4.800204214330258 1.370091871995688 1.337576825089827 3
-4.769892413090737 1.377660606408960 1.330329891826957 5
-4.770616740663408 1.395929835100497 1.331882806097572 7
-4.769172570446487 1.414504287458063 1.332918082277982 7
-4.756805265313735 1.428920053745808 1.330847529917162 7
-4.751788423420385 1.445515697307160 1.330847529917162 7
-4.759637445914226 1.466074535220395 1.334470996548597 5
-4.758438309323625 1.482999612900421 1.335506272729007 5
-4.752970882512843 1.500430200138137 1.335506272729007 3
-4.762691528159386 1.520884713477134 1.339647377450647 3
-4.753408953253902 1.537141816963718 1.338612101270237 3
-4.733866387548464 1.547266035369951 1.334470996548597 3
-4.717159317885064 1.560964688616254 1.331365168007367 5
-4.726613200861711 1.581502654105042 1.335506272729007 5
-4.706146863232790 1.593858366073001 1.331365168007367 5
-4.706599811106533 1.610511596986605 1.332918082277982 7
-4.702490878817657 1.628383466595912 1.333435720368187 7
-4.704071244293869 1.647342321470861 1.335506272729007 7
-4.705576461765692 1.666332019574519 1.337576825089827 5
-4.679724613854896 1.675583996492656 1.331882806097572 7
-4.675368241075055 1.693382669887394 1.332400444187777 7
-4.663065611599754 1.704594227617672 1.330329891826957 5
-4.667959635145221 1.724878553493283 1.333435720368187 5
-4.667339489873443 1.743190015934331 1.334988634638802 7
-4.655497254702664 1.758237325022461 1.333435720368187 5
-4.652941227637422 1.775855031111085 1.334470996548597 5
-4.639504192724312 1.789305424465522 1.332400444187777 5
-4.645830167583226 1.810399448655726 1.336023910819212 7
-4.643077494723960 1.828020817290597 1.337059186999622 7
-4.632756384251962 1.843597676797196 1.336023910819212 7
-4.611953267071748 1.853993326085047 1.331882806097572 7
-4.609686364705246 1.869925400914949 1.332918082277982 7
-4.609951766478131 1.889739150287780 1.334988634638802 7
-4.610800043162515 1.907970569068732 1.337059186999622 7
-4.587734980191307 1.918150361118042 1.332400444187777 7
-4.592028074505884 1.937859942939958 1.335506272729007 7
-4.577786255239596 1.951647043137056 1.333435720368187 5
-4.599682290758423 1.979033051999328 1.341717929811468 3
-4.578223809320932 1.989718318946065 1.337576825089827 3
-4.559565028143935 1.998662350569594 1.333953358458392 7
-4.559274843156689 2.018488794687226 1.336023910819212 7
-4.538445240625356 2.027293513200963 1.331882806097572 7
-4.548952135270665 2.051063919402896 1.337059186999622 7
-4.528057798144332 2.059738323817060 1.332918082277982 7
-4.523989116632361 2.077933326661259 1.333953358458392 7
-4.510062199392838 2.089675369149357 1.331882806097572 7
-4.513240371866162 2.110315306095896 1.334988634638802 7
-4.505846500551551 2.126056598224179 1.334988634638802 7
-4.484071079855990 2.135910907063432 1.330847529917162 7
-4.480446152257517 2.152441977741205 1.331882806097572 7
-4.472905431210517 2.168068540030301 1.331882806097572 7
-4.468781107169717 2.185366056783026 1.332918082277982 7
-4.461125530707061 2.200951699881221 1.332918082277982 7
-4.453415596837659 2.216510525077531 1.332918082277982 7
-4.445651399504619 2.232042342792585 1.332918082277982 7
-4.420989410502495 2.238047051929907 1.327741701375931 7
-4.423079101340731 2.259508821712425 1.330847529917162 7
-4.422431777419993 2.277702034947118 1.332918082277982 7
-4.414053877515489 2.293895758818799 1.332918082277982 7
-4.396155382215979 2.303141599039248 1.329812253736752 7
-4.384268548606088 2.317433286552109 1.328776977556342 7
-4.387197034797270 2.336644253772426 1.331882806097572 7
-4.382006837982838 2.354537206715589 1.332918082277982 7
-4.377985967470301 2.370131495527350 1.333953358458392 7
-4.352314726758443 2.376902240976229 1.328776977556342 7
-4.351596280778199 2.394288758949252 1.330847529917162 7
-4.349969375901600 2.413212757850959 1.332918082277982 7
-4.337299864907895 2.428010311487907 1.331882806097572 7
-4.328371629444518 2.443891001710481 1.331882806097572 7
-4.317742613183183 2.454813145315841 1.330847529917162 7
-4.309147411037805 2.469869924117378 1.330847529917162 7
-4.303845093958778 2.486829627865291 1.331882806097572 7
-4.301378066286184 2.506477841180668 1.333953358458392 7
-4.293042635801629 2.520727943401861 1.333953358458392 7
-4.277567568404648 2.531762210112633 1.331882806097572 7
-4.274894924152644 2.551383511922804 1.333953358458392 7
-4.265962889563185 2.566290136038266 1.333953358458392 7
-4.278453739893679 2.594186504059138 1.340682653631057 3
-4.272669085863874 2.611120043109011 1.341717929811468 3
-4.245891184160268 2.614133156897225 1.336023910819212 7
-4.229716054922317 2.625602127549025 1.333953358458392 7
-4.221446623340580 2.638877193759496 1.333953358458392 7
-4.211746300281816 2.654331844272680 1.333953358458392 7
-4.212706674726451 2.674496439177871 1.337059186999622 7
-4.193113081473388 2.683670457309229 1.333953358458392 7
-4.184190654376673 2.697560565637867 1.333953358458392 7
-4.180754775249743 2.717089181264725 1.336023910819212 7
-4.172674618684527 2.729481752330518 1.336023910819212 7
-4.172319354255665 2.751137718701852 1.339129739360442 7
-4.158345511472314 2.761752133012787 1.337576825089827 5
-4.164735126046153 2.786994646151273 1.342753205991877 3
-4.132556600509546 2.786395330725067 1.335506272729007 3
-4.122316193507176 2.801523192167072 1.335506272729007 5
-3.255330552018492 2.228136912459964 1.057016980198695 1
-4.147681805576710 2.860225736493553 1.350000139254748 1
-4.147694489174103 2.880576099392217 1.353105967795978 1
-4.089628582716530 2.862525160135822 1.337576825089827 1
-4.073797655687156 2.871618995622384 1.335506272729007 5
-4.054298436700165 2.879110495013835 1.332400444187777 5
-4.039005778376813 2.890578000046378 1.330847529917162 7
-4.033592327743887 2.908048484790765 1.332400444187777 5
-4.024979869138425 2.923245873847566 1.332918082277982 7
-4.020987822134539 2.941840627843555 1.334988634638802 7
-4.011210218303813 2.955158528735861 1.334988634638802 7
-3.994147577228764 2.965234310683389 1.332918082277982 7
-3.972942970964369 2.971059739264413 1.329294615646547 7
-3.969741033813264 2.991414433889235 1.331882806097572 7
-3.959799319089806 3.004562121733808 1.331882806097572 7
-3.951829833597471 3.021402050741572 1.332918082277982 7
-3.935191756469935 3.027224507485816 1.330329891826957 5
-3.925596867554055 3.042810885606135 1.330847529917162 7
-3.924622613287271 3.062943319869267 1.333953358458392 7
-3.913370003887092 3.077307207630450 1.333953358458392 7
-3.909202198782622 3.095064180070012 1.336023910819212 7
-3.886291292641895 3.099055368907992 1.331882806097572 7
-3.878462291912711 3.115021610863655 1.332918082277982 7
-3.864015606090966 3.126785503789335 1.331882806097572 7
-3.868052585989265 3.152459027883102 1.337059186999622 7
-3.848065477523919 3.158587741087176 1.333953358458392 7
-3.829187248753405 3.163278973801984 1.330847529917162 7
-3.826476674249954 3.184707317616266 1.333953358458392 7
-3.826260020414687 3.206064018880288 1.337576825089827 3
-3.826856743870968 3.229367810998266 1.341717929811468 3
-3.801184137509985 3.232774022910105 1.337059186999622 7
-3.781073062462551 3.238482813568360 1.333953358458392 7
-3.770313076827680 3.251003497408111 1.333953358458392 7
-3.760400637194587 3.265411185005211 1.334470996548597 7
-3.758278119506353 3.285492019990675 1.337576825089827 5
-3.734612769345652 3.289030349918738 1.333435720368187 5
-3.723685417494222 3.301396687946946 1.333435720368187 7
-3.711560182466163 3.315022502424067 1.333435720368187 5
-3.695959996115902 3.320855687398606 1.331365168007367 5
-3.698086191160117 3.347343903872094 1.336541548909417 5
-3.684109766387059 3.356986479673841 1.335506272729007 5
-3.666088366609897 3.365241338723533 1.333435720368187 5
-3.655498075127140 3.376742069271498 1.333435720368187 5
-3.637440160330665 3.384853301020645 1.331365168007367 5
-3.639699090181856 3.410739395053246 1.336541548909417 5
-3.627771213593160 3.423423536441791 1.336541548909417 5
-3.560374017156955 3.382213537385413 1.315836025301216 5
-3.458626748818733 3.309758191079726 1.282707187528093 3
-3.433719215647566 3.307806431188813 1.277530806626042 4
-3.424925115771963 3.322462448734580 1.278566082806452 4
-3.413888601853512 3.333801641674508 1.278566082806452 4
-3.374102979783844 3.319196296431709 1.268213321002352 3
-3.266989645503970 3.235213632909424 1.231978654687999 3
-3.228318110781320 3.219315510079270 1.221625892883898 13
-3.227400425411278 3.242079234324203 1.225766997605538 17
-3.235077685192915 3.272559398552040 1.233013930868409 13
-3.229621986247140 3.288782775623143 1.235084483229229 6
-3.231609836219252 3.313867054568622 1.240260864131279 1
nan nan nan 0
nan nan nan 0
-3.258698922427946 3.411225405187133 1.264072216280711 1
-3.203636358103312 3.378289268324924 1.247507797394150 1
-3.205662471639437 3.402956136562579 1.252684178296200 1
-3.201085428733896 3.423148775130111 1.255790006837431 1
-3.219246648853355 3.464321985117389 1.267178044821941 3
-3.206527650977139 3.476097844744919 1.267178044821941 3
-3.192980584665231 3.483306112785329 1.266142768641532 3
-3.185392824252574 3.500701005174878 1.268213321002352 4
-3.180243641637656 3.518410706314866 1.270801511453377 6
-3.182137169231678 3.545304810160408 1.276495530445632 27
-3.180648056521292 3.567373228191126 1.280636635167273 35
-3.157308927078184 3.567433741465248 1.276495530445632 27
-3.145487447059154 3.580433226270160 1.277013168535837 22
-3.136780093729672 3.595758531308553 1.278566082806452 22
-3.122944581662793 3.605225833816986 1.278048444716247 21
-3.119159270610270 3.626357201962927 1.281671911347683 21
-3.099587324656516 3.627868132764148 1.278566082806452 21
-3.084405299806792 3.635719321488553 1.277530806626042 21
-3.079801063212441 3.654791268965024 1.280636635167273 21
-3.065784994906993 3.664037898047117 1.280118997077067 21
-3.058556881670285 3.680127139230328 1.282189549437888 21
-3.040773850478342 3.684820992065900 1.280118997077067 22
-3.026602772568945 3.696469533270954 1.280118997077067 24
-3.014899880604650 3.708510822230066 1.280636635167273 27
-3.005012751004240 3.721494253383216 1.281671911347683 29
-2.990795601992468 3.730453778726741 1.281154273257478 34
-2.963318064044743 3.722733320661973 1.274942616175017 40
-2.952700946728049 3.736085857874721 1.275977892355427 29
-2.956994851122229 3.767131468020928 1.283224825618298 37
-2.961639681609083 3.800286933012552 1.290989396971373 34
-2.963724497371067 3.830464632357618 1.297718692144039 40
-2.959750337360040 3.853042824807685 1.301859796865679 43
-2.944437133326787 3.862328643924534 1.301342158775474 40
-2.961249151045108 3.912633698104897 1.314800749120805 42
-2.961026155110693 3.939418951588727 1.320494768113061 43
-2.957654982987103 3.963665623396473 1.325153510924906 40
-2.953696277964062 3.985868803956591 1.329294615646547 21
-2.936330699542378 3.991486439580161 1.327741701375931 24
-2.930793904400368 4.014704382734960 1.331882806097572 28
-2.912659599924548 4.020725859080552 1.330329891826957 26
-2.903398994569613 4.034560505080302 1.331882806097572 24
-2.881437553985854 4.033666911087354 1.328259339466136 24
-2.865516911048089 4.042624742283751 1.327741701375931 24
-2.853611364090461 4.055762557972300 1.328776977556342 24
-2.841648986391975 4.068866477036208 1.329812253736752 22
-2.829629869664466 4.081936262708673 1.330847529917162 22
-2.808410854632372 4.080157932901421 1.327224063285726 22
-2.792347980486157 4.088828538496058 1.326706425195521 22
-2.787447086342095 4.110857281998046 1.330847529917162 22
-2.766969717292922 4.113031693374718 1.328259339466136 22
-2.755461196764261 4.125397607254308 1.329294615646547 22
-2.738188143327498 4.132248397526665 1.328259339466136 22
-2.725915480775408 4.140354564380925 1.328259339466136 22
-2.708609213542916 4.147082880067114 1.327224063285726 22
-2.697995189657737 4.160904913657599 1.328776977556342 21
-2.685861836143150 4.175639900190319 1.330329891826957 21
-2.664722326047484 4.173126044874396 1.326706425195521 19
-2.650139163312733 4.182402237521042 1.326706425195521 21
-2.643016180013270 4.205172329917225 1.330847529917162 19
-2.627585700311107 4.214831223149273 1.330847529917162 21
-2.611561234464364 4.220235928055984 1.329812253736752 21
-2.595803124662836 4.227679974028754 1.329294615646547 22
-2.579019805118917 4.233415638928613 1.328259339466136 22
-2.566483299439364 4.247800235829177 1.329812253736752 22
-2.558344165132197 4.266228371603007 1.332918082277982 24
-2.546399889900918 4.280113405049354 1.334470996548597 22
-2.522606523117013 4.274002772500162 1.329812253736752 22
-2.509624356139001 4.286116475690704 1.330847529917162 22
-2.497338471028454 4.297755780863184 1.331882806097572 22
-2.486180319464688 4.313141761705038 1.333953358458392 24
