# This PCD file was generated using the MATLAB® pcwrite function
# from Computer Vision Toolbox®.
# .PCD v.7 - Point Cloud Data file format
VERSION .7
FIELDS x y z intensity
SIZE 8 8 8 1
TYPE F F F U
COUNT 1 1 1 1
WIDTH 847
HEIGHT 1
VIEWPOINT 0 0 0 1 0 0 0
POINTS 847
DATA ascii
1.570598769575971 0.788212330476366 -0.153742730206869 40
1.569636584297557 0.781224193877792 -0.153394107235878 43
1.577714300609372 0.778384949706346 -0.153917041692364 45
1.589370919744371 0.777249360921866 -0.154788599119841 43
1.590281466821750 0.770827658003129 -0.154614287634346 39
1.578727612876941 0.758094201620145 -0.153219795750383 41
1.577766138947383 0.750866443067022 -0.152871172779392 39
1.592991727556162 0.751303674164749 -0.154091353177860 38
1.597409544274810 0.746582113746182 -0.154265664663355 37
1.616015729129668 0.749101316097121 -0.155834468032813 39
1.604136433495433 0.736802956359226 -0.154439976148850 39
1.615765730588318 0.735325391506759 -0.155311533576327 40
1.620138950681134 0.730499782663380 -0.155485845061822 39
1.624498147201762 0.725652592775432 -0.155660156547317 41
1.627021250453062 0.719977615094954 -0.155660156547317 37
1.625874977947166 0.712694102419454 -0.155311533576327 36
1.624697726242721 0.705427384412070 -0.154962910605336 37
1.632763691784559 0.701828240223680 -0.155485845061822 39
1.638869957914157 0.697685372943550 -0.155834468032813 40
1.646681852085903 0.694569824206134 -0.156357402489299 38
1.639904033890899 0.684978037322195 -0.155485845061822 39
1.642285062589710 0.679249530864853 -0.155485845061822 39
1.646489854196225 0.674267807100827 -0.155660156547317 41
1.658182753490359 0.671970072657439 -0.156531713974794 42
1.660518264558689 0.666177840810631 -0.156531713974794 40
1.646168173154005 0.653759009139857 -0.154962910605336 38
1.646585925514995 0.647279908137464 -0.154788599119841 32
1.635726636639621 0.636756712535525 -0.153568418721374 37
1.649094459122896 0.635340764432354 -0.154614287634346 42
1.651302165413630 0.629580479811423 -0.154614287634346 38
1.649761476585241 0.622405956816978 -0.154265664663355 27
1.683655901890178 0.628488550567042 -0.157228959916775 15
1.736302523200295 0.641244480571263 -0.161935370025149 16
1.785315298093149 0.652272851094914 -0.166293157162532 26
1.808192802667674 0.653486027378099 -0.168210583502980 29
1.802958369123849 0.644487704262420 -0.167513337560999 25
1.805197066801453 0.638190278640004 -0.167513337560999 29
1.818587348991736 0.636147662103755 -0.168559206473971 23
nan nan nan 0
1.836290082734951 0.627628625735384 -0.169779386872438 5
nan nan nan 0
1.797162475151663 0.600275995830865 -0.165770222706046 30
1.789787117698695 0.590876047499933 -0.164898665278569 31
1.793732877321089 0.585242921494706 -0.165072976764065 32
1.807142430187700 0.582646347389411 -0.166118845677036 32
1.799573198994176 0.573624995260872 -0.165247288249560 34
1.793963022050902 0.564945978913532 -0.164550042307579 35
1.803533970070059 0.561047727496956 -0.165247288249560 36
1.807385920617256 0.555333979057298 -0.165421599735055 36
1.817035774506331 0.551018623346897 -0.166118845677036 37
1.813222153743952 0.542958023570128 -0.165595911220551 35
1.809281078677939 0.535246569984567 -0.165072976764065 37
1.818788418980789 0.531161858801394 -0.165770222706046 37
1.822637543298920 0.525043614692370 -0.165944534191541 35
1.824459183403963 0.518678223627039 -0.165944534191541 35
1.820414416161155 0.511009831386576 -0.165421599735055 33
1.826027308439643 0.505715831368428 -0.165770222706046 31
1.823937546593671 0.498288591548066 -0.165421599735055 26
3.614779781342321 0.973988907639258 -0.327531281245699 6
3.610455309964486 0.959318491490879 -0.326834035303718 11
3.629200763315727 0.950749101229522 -0.328228527187681 20
3.678795813274468 0.950031380851408 -0.332412002839568 15
3.720706195816070 0.947013084273942 -0.335898232549475 15
3.766504925209289 0.944683057524595 -0.339733085230372 11
3.822003266467469 0.944434468432187 -0.344439495338745 12
3.860122310739245 0.939568999192932 -0.347577102077661 12
3.904066038285321 0.935842126993196 -0.351237643273062 12
3.959664952870001 0.934565830680435 -0.355944053381436 12
4.007539101509071 0.931109032848908 -0.359953217547828 12
3.797116371766637 0.868260884570264 -0.340778954143343 8
3.747641503096763 0.843192984679365 -0.336072544034970 17
3.758343212855425 0.831828349446232 -0.336769789976951 11
3.804053610725727 0.828026934419693 -0.340604642657848 11
3.804972517901338 0.814326302923734 -0.340430331172353 16
3.813641008619672 0.802269984501078 -0.340953265628839 13
3.800809146998101 0.785726203755760 -0.339558773744876 13
3.803528687453223 0.772454117014879 -0.339558773744876 13
3.808155785515670 0.759562337167519 -0.339733085230372 15
3.806873450527803 0.745498972798387 -0.339384462259381 15
3.815322261352367 0.733334169179988 -0.339907396715867 13
3.796322191499171 0.715950136711040 -0.337989970375418 13
3.802470730708632 0.704746293609651 -0.338338593346409 15
3.808828152636145 0.692181387491389 -0.338687216317400 15
3.805336570802589 0.677833682687634 -0.338164281860914 16
3.813567632620274 0.665574098755480 -0.338687216317400 16
3.800269759046415 0.648909374659957 -0.337292724433437 16
3.794651233579837 0.634326019764387 -0.336595478491456 16
3.800666271913527 0.622382970548354 -0.336944101462446 17
3.804782951749146 0.609427490133582 -0.337118412947942 17
3.795076666077799 0.594293146298764 -0.336072544034970 18
3.793189085907683 0.580439495017579 -0.335723921063979 20
3.789280574289982 0.566311776220436 -0.335200986607493 20
3.791234285699117 0.553081268455972 -0.335200986607493 20
3.789196776839711 0.539282561329952 -0.334852363636503 20
3.793029619743534 0.526326353800492 -0.335026675121998 21
3.786946035465212 0.512015192409838 -0.334329429180017 21
3.780808853735228 0.497752928494783 -0.333632183238036 21
3.796441803328258 0.485661948796412 -0.334852363636503 22
3.798113950674500 0.472406935024019 -0.334852363636503 23
3.801637584405675 0.460048697195071 -0.335026675121998 23
3.793326379810784 0.445613435109592 -0.334155117694521 26
3.790899586677081 0.431918450418509 -0.333806494723531 26
3.790403810701862 0.418464476538483 -0.333632183238036 26
3.791912100271433 0.404569141337933 -0.333632183238036 27
3.797264950610692 0.391739346948389 -0.333980806209026 26
3.790612973782177 0.378353474214217 -0.333283560267045 17
3.768111978193439 0.362827915881991 -0.331191822441101 25
3.785226497985288 0.351144845432344 -0.332586314325064 30
3.782460158028003 0.337575575796730 -0.332237691354073 31
3.797511227269202 0.325561555670547 -0.333457871752540 32
3.780753305584278 0.310834503556743 -0.331889068383082 27
3.779880901625632 0.296819287752963 -0.331714756897587 8
4.426606282800299 0.332061252075620 -0.388365989683565 7
3.338647937910721 0.239317259903674 -0.292843295632131 4
3.387169584726321 0.230914056405223 -0.297026771284019 1
3.387954989407875 0.219089221293242 -0.297026771284019 1
3.388699112927056 0.207261716648241 -0.297026771284019 1
3.345642061934810 0.192908507532481 -0.293191918603122 1
3.370168741977185 0.182521814712102 -0.295283656429066 2
3.422521114069180 0.173377440208616 -0.299815755051944 1
nan nan nan 0
3.391774315256042 0.148681174026832 -0.297026771284019 1
3.276807966306579 0.132183040779787 -0.286916705125291 1
4.583370678451601 0.168865603059712 -0.401265039610218 6
3.321459130980317 0.110764492779743 -0.290751557806188 1
4.572488866953067 0.136507058413363 -0.400219170697246 6
nan nan nan 0
3.266664592808630 0.074701426316365 -0.285870836212319 1
3.266905447809537 0.063298183825764 -0.285870836212319 1
3.294996430106083 0.052337169079533 -0.288311197009253 1
4.562221412867273 0.056537201186307 -0.399173301784274 1
3.315204617440073 0.029510009708561 -0.290054311864206 1
3.271455504090050 0.017700450382211 -0.286219459183309 2
3.295405988057849 0.006326733088146 -0.288311197009253 1
nan nan nan 0
nan nan nan 0
3.251460587241095 -0.027807537384114 -0.284476344328356 2
3.239390242282077 -0.039013123605774 -0.283430475415384 2
3.295014498481485 -0.051186995183392 -0.288311197009253 1
nan nan nan 0
3.246771625182147 -0.073112597193331 -0.284127721357366 1
3.246496634147466 -0.084445499734718 -0.284127721357366 1
3.154572038989028 -0.093074453596072 -0.276109393024581 1
3.281671482501999 -0.108290868529477 -0.287265328096281 2
3.329059019934123 -0.121489244746265 -0.291448803748169 5
3.296761889682242 -0.131835317983264 -0.288659819980244 3
3.232585350477731 -0.140572460650787 -0.283081852444394 1
3.092761390838926 -0.145309940067878 -0.270880048459722 1
3.108154165688416 -0.156908435064480 -0.272274540343684 1
3.147377370070494 -0.169904938326092 -0.275760770053590 1
3.114939426080008 -0.179060815770400 -0.272971786285665 1
3.114295409913082 -0.189932892586616 -0.272971786285665 1
3.073848268916290 -0.198238125690751 -0.269485556575759 1
3.100966750573944 -0.210858974900044 -0.271925917372694 1
3.060465517817964 -0.218840006248240 -0.268439687662787 2
3.047722186027176 -0.229159382291287 -0.267393818749815 4
nan nan nan 0
nan nan nan 0
3.013438687815867 -0.257813025425003 -0.264604834981890 82
3.046304757221808 -0.270803659152096 -0.267568130235311 42
3.033437304210132 -0.280335523339433 -0.266522261322339 31
3.032440269880721 -0.290922487658426 -0.266522261322339 22
3.041319321822763 -0.302491865017755 -0.267393818749815 14
nan nan nan 0
3.399645331277836 -0.362717161199527 -0.299118509109963 3
nan nan nan 0
3.802928087534458 -0.431944273730487 -0.334852363636503 37
3.807333742980088 -0.445911626888416 -0.335375298092989 36
3.825534451675732 -0.461585674272412 -0.337118412947942 37
3.825877107995404 -0.475182041496724 -0.337292724433437 38
3.816289791699492 -0.487524060564561 -0.336595478491456 38
3.818515634776287 -0.501361166683970 -0.336944101462446 37
3.820691328971629 -0.515219746094107 -0.337292724433437 37
3.824790327537925 -0.529372771287960 -0.337815658889923 37
3.826864390814551 -0.543280639070698 -0.338164281860914 37
3.821001430984616 -0.556061727708610 -0.337815658889923 36
3.817066527083005 -0.569102317993355 -0.337641347404428 38
3.822935013661434 -0.583625631354401 -0.338338593346409 38
3.826780014110171 -0.597889277861753 -0.338861527802895 36
3.830571945022915 -0.612186867533332 -0.339384462259381 37
3.826445363775655 -0.625233037876080 -0.339210150773886 36
3.824239581172546 -0.638586015666791 -0.339210150773886 36
3.825915245817219 -0.652601234289548 -0.339558773744876 36
3.829502456095253 -0.666977788616131 -0.340081708201362 38
3.833035845113972 -0.681387325587538 -0.340604642657848 37
3.830634007315524 -0.694762966340124 -0.340604642657848 37
3.832103800995557 -0.708854942179595 -0.340953265628839 35
3.829606089000711 -0.722227162148939 -0.340953265628839 33
3.838801167576074 -0.737846994836480 -0.341999134541811 36
3.845978467995988 -0.753156897531806 -0.342870691969287 37
3.833556516768469 -0.764628684208656 -0.341999134541811 36
3.836721699612723 -0.779195246372812 -0.342522068998297 38
3.847636364414916 -0.795406608730163 -0.343742249396764 35
3.852635292961387 -0.810473154076752 -0.344439495338745 35
3.849782742126494 -0.823916423234663 -0.344439495338745 33
3.846883282903807 -0.837349653230969 -0.344439495338745 35
3.843936950622319 -0.850772680386001 -0.344439495338745 32
3.862325553243397 -0.868996089500984 -0.346356921679194 35
3.861210919218453 -0.882916950652524 -0.346531233164689 32
3.869906484265530 -0.898419702116391 -0.347577102077661 30
3.870625219449667 -0.912837389905555 -0.347925725048651 30
3.871128508433781 -0.927946684730722 -0.348274348019642 28
3.881416867117445 -0.944752178225591 -0.349494528418109 27
3.988345513894697 -0.985538397726300 -0.359430283091342 17
3.984881044526196 -0.999454317401597 -0.359430283091342 19
3.939064714677348 -1.001858804151101 -0.355595430410445 19
3.910464132333267 -1.009130624937735 -0.353329381099006 17
3.879933646578503 -1.015710487087484 -0.350889020302072 28
3.874438852012362 -1.028736494461451 -0.350714708816576 38
3.895834583194364 -1.048988791540771 -0.352980758128016 42
3.880616900318325 -1.059433011906367 -0.351934889215044 41
3.876895146929838 -1.072972438352947 -0.351934889215044 41
3.886554526805176 -1.090265750620677 -0.353155069613511 41
3.886558008343735 -1.104915375541632 -0.353503692584502 39
3.886506526152109 -1.119578296035200 -0.353852315555492 39
3.871099200146574 -1.129788738584357 -0.352806446642520 39
3.878595747221018 -1.146683726410665 -0.353852315555492 39
3.874569444316024 -1.160215566155116 -0.353852315555492 39
3.878122523972589 -1.176046043953396 -0.354549561497473 39
3.881612203748003 -1.191915435556840 -0.355246807439455 37
3.869817733307060 -1.203091567348122 -0.354549561497473 39
3.873196539687886 -1.218984934588555 -0.355246807439455 37
3.863222722729047 -1.230683212092345 -0.354723872982969 35
3.872177169405335 -1.248440547082033 -0.355944053381436 38
3.882948678466982 -1.266893335864991 -0.357338545265398 38
3.867151023864835 -1.276692009608734 -0.356292676352427 35
3.864560737839275 -1.290814312801388 -0.356466987837922 35
3.873244232260078 -1.308760866981848 -0.357687168236389 35
3.866766899065076 -1.321628656450999 -0.357512856750894 37
3.879077422088325 -1.340976776387202 -0.359081660120352 37
3.864969089203645 -1.351221470310885 -0.358210102692875 35
3.867742726893020 -1.367360857148562 -0.358907348634856 34
3.866698437840014 -1.382194753886417 -0.359255971605847 37
3.869833115497672 -1.397041638382530 -0.359953217547828 33
3.874291144949267 -1.413956719964128 -0.360824774975305 34
3.867213589553927 -1.427457283407815 -0.360650463489810 34
3.864073975782602 -1.441644127877489 -0.360824774975305 34
3.872322744069079 -1.459368362016157 -0.362044955373772 34
3.872790762222624 -1.475003809251739 -0.362567889830258 34
3.884092353351269 -1.495631993273673 -0.364136693199716 34
3.876991163663182 -1.508458452054454 -0.363962381714221 34
3.873556304505434 -1.522711405517075 -0.364136693199716 31
3.884882820334199 -1.542841846091585 -0.365705496569174 30
3.883171888166199 -1.557876910581654 -0.366054119540164 30
3.888789397383849 -1.575911996677690 -0.367099988453136 28
3.889074214253625 -1.591062268605141 -0.367622922909622 23
4.605322517299415 -1.902880309282013 -0.435953025223786 59
4.613025910734749 -1.925887612548958 -0.437347517107749 64
4.622798311830215 -1.948944389088224 -0.438916320477207 66
4.630976554032859 -1.970504134610176 -0.440310812361169 66
4.625900587357153 -1.987443737960535 -0.440485123846664 70
4.620762764863334 -2.004371904838345 -0.440659435332160 66
4.624688377619286 -2.025284630395150 -0.441705304245132 64
4.631811179021900 -2.048668780588535 -0.443099796129094 66
4.624631771864861 -2.064824337644353 -0.443099796129094 64
4.621392309872439 -2.081785439916784 -0.443448419100085 64
4.621352237551614 -2.101203018439920 -0.444145665042066 64
4.620862634172566 -2.121452167892318 -0.444842910984047 66
4.620660312585298 -2.140919485703624 -0.445540156926029 64
4.631207311040825 -2.165474663196712 -0.447283271780982 63
4.616412665024471 -2.178226578601727 -0.446586025839000 66
4.620341986155523 -2.197853866336248 -0.447631894751972 66
4.619826696202693 -2.217417028584729 -0.448329140693954 68
4.622035649905829 -2.240353666665236 -0.449375009606926 66
4.624926189886774 -2.261725617817681 -0.450420878519897 64
4.613429585700337 -2.276092797442567 -0.450072255548907 64
4.616158500184180 -2.297509333813324 -0.451118124461879 64
4.626726695555477 -2.320933601497191 -0.452861239316832 66
4.625707941545767 -2.340668011480944 -0.453558485258813 64
4.631706104363068 -2.364046605165563 -0.454952977142776 68
4.623425823796490 -2.380199874052739 -0.454952977142776 64
4.622162141897796 -2.399996668374686 -0.455650223084757 63
4.627876572434721 -2.423510791977006 -0.457044714968719 64
4.626435868871328 -2.443372146940049 -0.457741960910701 66
4.631946898447668 -2.466999320566619 -0.459136452794663 63
4.626817728232947 -2.485038264264345 -0.459485075765654 63
4.621619018726594 -2.503071436305965 -0.459833698736644 61
4.620715289932056 -2.525576543352207 -0.460705256164121 63
4.625830735913425 -2.549383812910989 -0.462099748048084 64
4.632577678557729 -2.574225228404664 -0.463668551417541 61
4.621825550518289 -2.589406432008336 -0.463494239932046 64
4.618873237639886 -2.606851372151185 -0.464017174388532 63
4.625330653514407 -2.631826370218053 -0.465585977757990 69
4.628213330975959 -2.654895360213585 -0.466806158156457 69
4.629266403684922 -2.677019059416854 -0.467852027069429 69
4.626778747663597 -2.697175559530557 -0.468549273011410 69
4.624206695268579 -2.717347262291550 -0.469246518953392 71
4.626692784680500 -2.740580040974241 -0.470466699351859 84
4.625651537422555 -2.761820432619864 -0.471338256779335 73
4.597204767414121 -2.766649311064730 -0.469420830438887 52
4.551745899283622 -2.760980373222265 -0.465760289243485 50
4.519499739661298 -2.764130820484313 -0.463494239932046 43
4.482686627872077 -2.763162547379293 -0.460705256164121 45
4.456090077222971 -2.768279425296493 -0.458962141309168 36
3.802997500472706 -2.380993685137196 -0.392549465335452 28
3.777812920893643 -2.383622438884386 -0.390806350480499 31
3.747612639637979 -2.382897382933877 -0.388540301169060 31
3.743045548331776 -2.397461037805384 -0.388888924140051 6
3.023211655238463 -1.951315486598148 -0.314806542804541 4
3.049439635188437 -1.984114820847543 -0.318292772514448 1
2.945855158944278 -1.931387273962590 -0.308182706355719 1
2.929458795027857 -1.934557864557069 -0.307136837442747 2
2.935957947041949 -1.953601635959880 -0.308531329326710 3
2.939049940638503 -1.970495218152758 -0.309577198239682 12
2.932153723018557 -1.980742412056268 -0.309577198239682 16
2.895574260010245 -1.970786767138182 -0.306439591500766 20
2.875532000418374 -1.971867947345784 -0.305045099616804 18
2.856812286992567 -1.974464478118123 -0.303824919218336 20
2.848267659028195 -1.983286073908029 -0.303650607732841 18
2.833171986289921 -1.987495243465554 -0.302779050305365 20
2.809946392802420 -1.985873771201022 -0.301035935450411 19
2.790012927202287 -1.986425652105193 -0.299641443566449 19
2.773348006449790 -1.989185139175923 -0.298595574653477 19
2.756697934671506 -1.991852572253175 -0.297549705740505 19
2.740063151170379 -1.994428089038260 -0.296503836827533 19
2.714498005329133 -1.988895697372198 -0.294412099001589 19
2.694714585417437 -1.988893658559348 -0.293017607117627 19
2.681360022565728 -1.993532852959403 -0.292320361175645 19
2.664816497138322 -1.995714460221343 -0.291274492262674 18
2.657483938923704 -2.005468096111149 -0.291274492262674 18
2.628261168855501 -1.997852365112785 -0.288834131465739 17
2.605800106325065 -1.994447430758121 -0.287091016610786 17
2.589354833612605 -1.996232381043243 -0.286045147697814 16
2.578873996862212 -2.003264936064857 -0.285696524726823 18
2.565588915764854 -2.007343748937048 -0.284999278784842 16
2.530398645107147 -1.994089439987934 -0.281861672045926 16
2.520301441590563 -2.000432714868726 -0.281513049074936 17
2.511747048827178 -2.007973923495906 -0.281338737589441 17
2.495411372920707 -2.009232188590236 -0.280292868676469 17
2.485639356967957 -2.014986899805633 -0.279944245705478 16
2.460070617176775 -2.008530443475661 -0.277852507879534 17
2.441921540803988 -2.008673628031663 -0.276632327481067 16
2.433360808924438 -2.015914219152789 -0.276458015995572 17
2.422072261130245 -2.020144002946185 -0.275935081539086 17
2.404326770149458 -2.019615930179294 -0.274714901140619 16
2.385093502562274 -2.017701895206276 -0.273320409256656 17
2.365903041669328 -2.015678320784554 -0.271925917372694 15
2.351292172403630 -2.017437645615871 -0.271054359945217 17
2.347250770071268 -2.028238211666475 -0.271402982916208 17
2.331492669800308 -2.028164924648701 -0.270357114003236 17
2.306415105273668 -2.020536327342300 -0.268265376177292 16
2.291524861444163 -2.022384324276100 -0.267393818749815 17
2.284451461986865 -2.030370917719337 -0.267393818749815 15
2.268442729580189 -2.030360153330560 -0.266347949836843 17
2.250982080556488 -2.028928519905573 -0.265127769438376 16
2.235034462958470 -2.028738943088252 -0.264081900525404 16
2.222056878109703 -2.031151337093160 -0.263384654583423 17
2.215309119928309 -2.038508775279722 -0.263384654583423 16
2.199411482096850 -2.038103896751462 -0.262338785670451 17
2.189370438361224 -2.043050229015110 -0.261990162699460 17
2.169158305088652 -2.038400589449886 -0.260421359330003 17
2.154794035283899 -2.039112690813652 -0.259549801902526 17
2.141893665394737 -2.041123925785642 -0.258852555960545 16
2.127568034279820 -2.041690491702055 -0.257980998533068 17
2.118995520817430 -2.047720121224877 -0.257806687047573 16
2.096128052440584 -2.039819568988004 -0.255889260707124 15
2.086148940834650 -2.044334996794771 -0.255540637736134 18
2.070491302086908 -2.043207816308489 -0.254494768823162 15
2.060520059550460 -2.047613933518390 -0.254146145852171 18
2.053359999682259 -2.054794016015561 -0.254146145852171 15
2.034947623039899 -2.050635212050305 -0.252751653968209 17
2.022541424079844 -2.051696557309493 -0.252054408026227 15
2.007004824472006 -2.050201538346492 -0.251008539113255 17
2.002254030887001 -2.060401507683808 -0.251357162084246 16
1.985364981803220 -2.057342309734243 -0.250136981685779 17
1.969900321415328 -2.055628940549678 -0.249091112772807 16
1.954471914403078 -2.053832781121209 -0.248045243859835 17
1.947290792787282 -2.060642648623092 -0.248045243859835 16
1.933269057385555 -2.060163081042615 -0.247173686432359 17
1.920992472803884 -2.060733190811953 -0.246476440490377 17
1.905666729328063 -2.058653480133864 -0.245430571577405 17
1.895412410165387 -2.062690144897756 -0.245081948606415 17
1.882828893320085 -2.063406764451130 -0.244384702664434 17
1.875614788739632 -2.069966492812095 -0.244384702664434 17
1.861714571360687 -2.069095503566739 -0.243513145236957 16
1.846155166333763 -2.066989289215400 -0.242467276323985 16
1.834962722080407 -2.068949188359533 -0.241944341867499 17
1.825819222258326 -2.071714187875075 -0.241595718896508 15
1.813328049749708 -2.072077534678444 -0.240898472954527 17
1.810947726524091 -2.084726322663987 -0.241595718896508 17
1.788043539936782 -2.072930809829815 -0.239503981070565 15
1.778566959177936 -2.075822797449921 -0.239155358099574 17
1.763563895454491 -2.072913470892762 -0.238109489186602 16
1.762381801126790 -2.086974471912949 -0.238981046614079 18
1.747405261451696 -2.083953383227003 -0.237935177701107 16
1.735021007322839 -2.083915609587656 -0.237237931759126 18
1.720119448921832 -2.080745633394272 -0.236192062846154 16
1.711044855348525 -2.083060098713716 -0.235843439875163 18
1.705022442876865 -2.090564060326511 -0.236017751360658 15
1.691969461047890 -2.090900189538184 -0.235320505418677 18
1.677173169066177 -2.087474444311748 -0.234274636505705 15
1.658176798034004 -2.077162198264855 -0.232531521650752 18
1.659579024442711 -2.093867618408307 -0.233751702049219 16
1.645734283711563 -2.092106475697961 -0.232880144621743 17
1.637195079549459 -2.096268176241629 -0.232705833136247 16
1.627792302887495 -2.098537191842081 -0.232357210165257 16
1.604653716190172 -2.083685319047484 -0.230091160853818 17
1.597370520982790 -2.089273911288827 -0.230091160853818 17
1.591272459185104 -2.096424044149309 -0.230265472339313 17
1.580347729440339 -2.097192270713375 -0.229742537882827 17
1.561082651595939 -2.086742250012002 -0.227999423027874 18
1.554154181564759 -2.091907513018617 -0.227999423027874 16
1.546842593204802 -2.097319778895532 -0.227999423027874 18
1.540321858564780 -2.104582932294607 -0.228173734513369 17
1.528281720590233 -2.103499329606974 -0.227476488571388 17
1.514669686822780 -2.098596891806830 -0.226430619658416 17
1.505014226618989 -2.100632073555070 -0.226081996687425 18
1.490378293706832 -2.096391013824423 -0.225036127774453 17
1.480753920015325 -2.098324892275846 -0.224687504803463 17
1.475706522885303 -2.106744645064999 -0.225036127774453 17
1.461519406073717 -2.102067884157193 -0.223990258861481 18
1.449646307464526 -2.100597489676638 -0.223293012919500 17
1.444556864468218 -2.108932403851289 -0.223641635890491 18
1.434946162749909 -2.110666657809955 -0.223293012919500 17
1.428684237292502 -2.117314266951228 -0.223467324404996 18
1.410198262885949 -2.105733894454107 -0.221724209550042 19
1.397324983097555 -2.102347021226954 -0.220852652122566 18
1.393637723790730 -2.111958035684936 -0.221375586579052 18
1.385165582924150 -2.115143092979618 -0.221201275093556 17
1.374147618079593 -2.115193464839529 -0.220678340637070 18
1.358119155447554 -2.106580867966489 -0.219283848753108 18
1.346462605292839 -2.104595531122194 -0.218586602811127 19
1.341243731238227 -2.112646828110627 -0.218935225782117 19
1.331737063724244 -2.113944249542693 -0.218586602811127 18
1.326462108649900 -2.121958916008459 -0.218935225782117 18
1.311014208733747 -2.112802350811188 -0.217540733898155 18
1.300497436308409 -2.112275950930832 -0.217017799441669 18
1.291708471879205 -2.115327900209916 -0.216843487956174 18
1.282251912126705 -2.116415839877045 -0.216494864985183 18
1.276909339168004 -2.124294104232400 -0.216843487956174 19
1.262342977418043 -2.116759976143074 -0.215623307557706 18
1.252272185746567 -2.115790680170709 -0.215100373101220 18
1.245887884844905 -2.121867146777286 -0.215274684586716 17
1.237470783282474 -2.124481557936895 -0.215100373101220 18
1.230047419630159 -2.128788194009189 -0.215100373101220 19
1.218645991841980 -2.126154567671837 -0.214403127159239 18
1.208262715414687 -2.125199396223367 -0.213880192702753 19
1.195943637578879 -2.120726794528887 -0.213008635275277 19
1.193396700734508 -2.133582803137817 -0.213880192702753 20
1.184008760794318 -2.134251045001546 -0.213531569731763 20
1.172709819765736 -2.131388568338012 -0.212834323789781 20
1.155719229303948 -2.117979594927090 -0.211091208934828 20
1.148319059796457 -2.122000904433976 -0.211091208934828 26
1.147872908104314 -2.138085045268198 -0.212311389333295 27
nan nan nan 0
1.212509983174242 -2.297785294799062 -0.227302177085893 1
nan nan nan 0
nan nan nan 0
nan nan nan 0
1.390779253082112 -2.726028439708167 -0.267742441720806 1
1.397441748912192 -2.762868899847348 -0.270880048459722 4
1.387789022983509 -2.767730049523063 -0.270880048459722 4
1.381666670133692 -2.779694045359512 -0.271577294401703 4
1.371955309594194 -2.784500027229619 -0.271577294401703 5
1.344740361452108 -2.753466277497161 -0.268091064691796 4
1.296924864854186 -2.679236945573808 -0.260421359330003 4
nan nan nan 0
1.144287624334722 -2.405528518492964 -0.233054456107238 30
1.148627439037953 -2.436540799620062 -0.235669128389668 37
1.135479689381200 -2.429506493326434 -0.234623259476696 35
1.120293892135643 -2.418991925825869 -0.233228767592733 35
1.111012235334572 -2.421076916049020 -0.233054456107238 36
1.101729683138043 -2.423126604932872 -0.232880144621743 35
1.092023085232709 -2.425331642588947 -0.232705833136247 34
1.082738796650430 -2.427309166477720 -0.232531521650752 34
1.072266766446563 -2.425419550725679 -0.232008587194266 30
1.072585625094827 -2.449223284437680 -0.233926013534715 9
1.073904713505816 -2.476901688755222 -0.236192062846154 8
1.077830793941378 -2.509926859291110 -0.238981046614079 8
1.080866041976305 -2.538965203256272 -0.241421407411013 8
1.075092834171384 -2.550066264945261 -0.242118653352994 8
1.073093217354900 -2.570350826308162 -0.243687456722452 8
1.074770849146999 -2.599858596013826 -0.246127817519387 8
1.073075240352350 -2.624252100226131 -0.248045243859835 8
1.078861387284001 -2.664917639408670 -0.251531473569741 8
1.076964522309398 -2.687161215957314 -0.253274588424695 8
1.080803347856966 -2.724239510291369 -0.256412195163610 9
1.081715522157655 -2.751726929576861 -0.258678244475049 9
1.084385122860983 -2.787051598016493 -0.261641539728470 10
1.086105186115923 -2.820568741040629 -0.264430523496395 21
1.071996178511450 -2.813172002737625 -0.263384654583423 30
1.064278719320214 -2.822489608846996 -0.263907589039909 30
1.061384372408357 -2.844854463329800 -0.265650703894862 30
1.051447510833015 -2.848542054364517 -0.265650703894862 27
1.036030657451170 -2.837222784913964 -0.264256212010900 27
1.025624757282283 -2.841000970021536 -0.264256212010900 27
1.010341662052170 -2.829552869626854 -0.262861720126937 27
1.004103747454407 -2.840226810617895 -0.263558966068918 27
0.994183388374725 -2.843714483151295 -0.263558966068918 26
0.981151452276291 -2.839806603236923 -0.262861720126937 25
0.968012432254962 -2.833787057216640 -0.261990162699460 25
0.955708165192470 -2.831652660821835 -0.261467228242975 26
0.945818030323355 -2.834971453484177 -0.261467228242975 27
0.935916370960022 -2.838255702914021 -0.261467228242975 27
0.923533965597064 -2.833928021442905 -0.260769982300993 26
0.912792231534513 -2.831126598394792 -0.260247047844507 26
0.901089919418966 -2.828600421064511 -0.259724113388021 27
0.893107713474750 -2.839486454931000 -0.260421359330003 28
0.879643664683694 -2.831170672734649 -0.259375490417031 27
0.872589710427285 -2.841690582920520 -0.260072736359012 26
0.859195880685718 -2.833279287425400 -0.259026867446040 27
0.845871447246094 -2.824809250043209 -0.257980998533068 27
0.837135607162860 -2.831565959301255 -0.258329621504059 28
0.829479281391480 -2.842121250700498 -0.259026867446040 27
0.817898824147883 -2.839255752849053 -0.258503932989554 26
0.803675468902404 -2.828818624680125 -0.257283752591087 27
0.791644943814318 -2.823933010455247 -0.256586506649106 27
0.783338966880755 -2.830383083989391 -0.256935129620096 27
0.774503776906289 -2.836944301570008 -0.257283752591087 27
0.764596274723052 -2.839630540639448 -0.257283752591087 26
0.751611653508119 -2.830728187106447 -0.256237883678115 27
0.739707687069176 -2.825624801730792 -0.255540637736134 26
0.730337753716654 -2.830118836770056 -0.255714949221629 27
0.720945453183244 -2.834581863307033 -0.255889260707124 27
0.711046523744109 -2.837081163330753 -0.255889260707124 26
0.697318009825690 -2.824071529868601 -0.254494768823162 27
0.686985052029450 -2.824552467784526 -0.254320457337667 26
0.677614721232293 -2.826815061964409 -0.254320457337667 26
0.670489197819215 -2.840797823679996 -0.255366326250638 26
0.658765276993830 -2.835358173028936 -0.254669080308657 26
0.647087523692519 -2.829871382948333 -0.253971834366676 26
0.635018783067654 -2.822393912083247 -0.253100276939199 27
0.625593473988289 -2.826538658529469 -0.253274588424695 25
0.616570721382116 -2.832598773595667 -0.253623211395685 27
0.605428464846524 -2.828888938040319 -0.253100276939199 26
0.593909477278917 -2.823186186340125 -0.252403030997218 26
0.584857800536886 -2.829144385599203 -0.252751653968209 27
0.576364128342626 -2.832920197880477 -0.252925965453704 24
0.565300676977135 -2.829053526279171 -0.252403030997218 27
0.558107044349179 -2.844695378013113 -0.253623211395685 26
0.542899279646219 -2.819235986526262 -0.251182850598751 26
0.534534682814681 -2.828944872180234 -0.251880096540732 26
0.523204229310412 -2.822957404920730 -0.251182850598751 26
0.515484543335071 -2.836528222781524 -0.252228719511723 25
0.504881273960634 -2.834387291139043 -0.251880096540732 27
0.494299240609448 -2.832206944864156 -0.251531473569741 25
0.481388713910089 -2.816239970177672 -0.249962670200284 26
0.473857142786276 -2.831658627694290 -0.251182850598751 24
0.462360033992467 -2.823464442042331 -0.250311293171274 26
0.454707274179296 -2.838832367825242 -0.251531473569741 25
0.440787966393793 -2.814813087391729 -0.249265424258302 24
0.430357008766926 -2.812395646249310 -0.248916801287312 23
0.421715269655571 -2.821762757349586 -0.249614047229293 24
0.412355648414886 -2.823145700569872 -0.249614047229293 24
0.402498518668086 -2.824567890827871 -0.249614047229293 24
0.392362297114608 -2.823982231890812 -0.249439735743798 23
0.381165882869587 -2.815462738248324 -0.248568178316321 24
0.371335761684813 -2.816776102714318 -0.248568178316321 25
0.363275665548220 -2.831888515932623 -0.249788358714788 23
0.352155279997983 -2.823253988716997 -0.248916801287312 24
0.341818729857967 -2.820510205024402 -0.248568178316321 24
0.331738430543843 -2.819707449474349 -0.248393866830826 20
0.320538451391594 -2.808970998267072 -0.247347997917854 21
0.280512242511029 -2.536788740156098 -0.223293012919500 6
nan nan nan 0
0.248435018420534 -2.399959279473888 -0.211091208934828 30
0.240650772508183 -2.406759368945715 -0.211614143391314 31
0.234926463110021 -2.435349302701224 -0.214054504188248 28
0.226055307513557 -2.432186833752314 -0.213705881217258 34
0.217564013893939 -2.432961096316896 -0.213705881217258 34
0.207364766965556 -2.413854933316698 -0.211962766362305 36
0.199428377433771 -2.420521049117665 -0.212485700818791 34
0.191447970422877 -2.427161098056560 -0.213008635275277 34
0.183124164311126 -2.429801344072340 -0.213182946760772 33
0.175498244727961 -2.442349356794075 -0.214228815673744 32
0.166717123447573 -2.432979260310906 -0.213357258246267 15
0.181103773511012 -2.785456283638338 -0.244210391178938 18
0.173092186112452 -2.813912312360950 -0.246650751975873 28
0.164422587298044 -2.834389828465211 -0.248393866830826 27
0.154527718713348 -2.834946502329467 -0.248393866830826 28
0.144326481010305 -2.829499225616267 -0.247870932374340 24
0.133786962616404 -2.816054767788370 -0.246650751975873 23
0.124131485205330 -2.820485540320421 -0.246999374946863 22
0.114124090975253 -2.816920144130608 -0.246650751975873 22
0.104585323565416 -2.825265452664713 -0.247347997917854 22
0.094322150857812 -2.813665686094426 -0.246302129004882 24
0.084739257607928 -2.821943756880338 -0.246999374946863 23
0.074782619563100 -2.818238983188086 -0.246650751975873 24
0.065036468659007 -2.822466574916384 -0.246999374946863 23
0.055183825490430 -2.822676399125500 -0.246999374946863 23
0.045202548005019 -2.814883299694948 -0.246302129004882 24
0.035715505136788 -2.803064353449374 -0.245256260091910 24
0.026133495093540 -2.825087292309679 -0.247173686432359 25
0.016122762340382 -2.799260671287039 -0.244907637120919 28
0.006428270823677 -2.833170428727875 -0.247870932374340 26
-0.003444339570472 -2.819228891572066 -0.246650751975873 23
-0.013266486148413 -2.815214958327861 -0.246302129004882 23
-0.023175056810538 -2.825113110209442 -0.247173686432359 20
-0.033036400696478 -2.825015002608740 -0.247173686432359 20
-0.042988098057094 -2.830858952230874 -0.247696620888845 22
-0.052720554946477 -2.822723481296387 -0.246999374946863 22
-0.062617536522144 -2.824514155187638 -0.247173686432359 20
-0.072425437555842 -2.822286637599148 -0.246999374946863 10
-0.082276615160993 -2.822016631307036 -0.246999374946863 9
-0.091801713362875 -2.811755597996878 -0.246127817519387 4
-0.093462146360128 -2.598387822159153 -0.227476488571388 2
-0.108502834560179 -2.749349561801380 -0.240724161469032 5
-0.111316848979837 -2.601672592330538 -0.227825111542378 5
-0.125740523703259 -2.716703180678959 -0.237935177701107 4
-0.131260247928955 -2.636650710670214 -0.230962718281294 2
-0.138236869526613 -2.594395553533712 -0.227302177085893 1
-0.150228964679203 -2.645616020282990 -0.231834275708771 1
-0.156345651466705 -2.593367262375205 -0.227302177085893 1
-0.165849767504486 -2.592776807770141 -0.227302177085893 1
-0.173289734942225 -2.568327651568622 -0.225210439259949 2
-0.185357208901070 -2.611429677274144 -0.229045291940846 4
-0.209863644248465 -2.817402779078311 -0.247173686432359 15
-0.219669097694282 -2.822650504670819 -0.247696620888845 21
-0.229197607348621 -2.817894856929849 -0.247347997917854 18
-0.239549452503086 -2.829031026115886 -0.248393866830826 6
-0.245922478391875 -2.788483886254580 -0.244907637120919 7
-0.255836565945080 -2.789592531175963 -0.245081948606415 15
-0.268783549744550 -2.822400566961613 -0.248045243859835 21
-0.279025543554549 -2.825410630857915 -0.248393866830826 19
-0.290102730904236 -2.836311728945528 -0.249439735743798 18
-0.299582249687030 -2.831319143651959 -0.249091112772807 18
-0.309030453639115 -2.826294986814150 -0.248742489801816 17
-0.319834901482114 -2.829102906104960 -0.249091112772807 17
-0.331092724826511 -2.839843146717806 -0.250136981685779 6
-0.336474268984015 -2.805100040113919 -0.247173686432359 2
-0.344310311808471 -2.788089488648005 -0.245779194548396 2
-0.357544107815862 -2.810526322924237 -0.247870932374340 2
-0.366319156863574 -2.801358856706901 -0.247173686432359 2
-0.367077687907900 -2.732924772061554 -0.241247095925518 1
-0.373893931614632 -2.711889594167340 -0.239503981070565 2
-0.389015441629132 -2.754036528109707 -0.243338833751462 2
-0.387204491710958 -2.673789000404514 -0.236366374331649 1
-0.399574001677644 -2.696140639122810 -0.238458112157593 1
-0.405993213724606 -2.675031125138842 -0.236714997302640 1
-0.424368058029126 -2.728649347192759 -0.241595718896508 1
-0.432638027864837 -2.719280835547039 -0.240898472954527 1
-0.458271026562963 -2.820094028524452 -0.249962670200284 3
-0.467459323680387 -2.814546252618721 -0.249614047229293 3
-0.467095542020246 -2.749957844482833 -0.244036079693443 2
-0.478053817243314 -2.756162939149738 -0.244733325635424 2
-0.479556908117590 -2.711399840968660 -0.240898472954527 2
-0.486187750699036 -2.694023629094883 -0.239503981070565 3
-0.496560175599912 -2.700234686568901 -0.240201227012546 4
-0.509287405161323 -2.716109274560421 -0.241770030382004 7
-0.524105718478737 -2.739664137748593 -0.244036079693443 8
-0.539002395326486 -2.765196156173284 -0.246476440490377 3
-0.558636314643158 -2.816159910858579 -0.251182850598751 7
-0.575958494083361 -2.851298691076554 -0.254494768823162 10
-0.583593626030440 -2.835508148906461 -0.253274588424695 15
-0.594304754863608 -2.837353894914741 -0.253623211395685 16
-0.601635885255817 -2.825623977635521 -0.252751653968209 16
-0.612338930273258 -2.827401153760305 -0.253100276939199 8
nan nan nan 0
-0.636851186210162 -2.844444152666155 -0.255017703279648 17
-0.641471200790807 -2.818891121443911 -0.252925965453704 3
-0.640534233775971 -2.770046762985821 -0.248742489801816 4
-0.637441653193320 -2.713485503329741 -0.243861768207948 4
-0.638586247275235 -2.676360118309187 -0.240724161469032 4
-0.643232891035324 -2.654751119643719 -0.238981046614079 4
-0.641073537339134 -2.606056565079458 -0.234797570962191 4
-0.638135847005677 -2.557521413363055 -0.230614095310303 4
-0.640212185851252 -2.528238340023698 -0.228173734513369 4
-0.639117006212919 -2.487394013330946 -0.224687504803463 5
-0.641262499297056 -2.460084369108528 -0.222421455492024 10
nan nan nan 0
-0.653777323701635 -2.438227905070393 -0.220852652122566 31
-0.661238907346260 -2.432085746954545 -0.220504029151575 35
-0.670253868843791 -2.431683536415378 -0.220678340637070 32
-0.681418584598850 -2.438923605861998 -0.221549898064547 35
-0.691013511036183 -2.440364188789798 -0.221898521035538 34
-0.701176295464689 -2.443682569159756 -0.222421455492024 34
-0.820940636278575 -2.823856501729360 -0.257283752591087 19
-0.847678764690571 -2.878310543654778 -0.262513097155946 19
-0.862846600503243 -2.892517328178846 -0.264081900525404 21
-0.875242900549867 -2.897116819983803 -0.264779146467386 21
-0.884767542379912 -2.892138772129584 -0.264604834981890 20
-0.893764189826438 -2.887285588788771 -0.264430523496395 23
-0.902645640828766 -2.880345742598919 -0.264081900525404 26
-0.916406998126378 -2.890631249336806 -0.265302080923871 33
-0.930143999024659 -2.898797493909522 -0.266347949836843 18
-0.921676227701210 -2.836627752601800 -0.260944293786489 6
-0.914770386161360 -2.782289935928741 -0.256237883678115 8
-0.911270005692831 -2.739378700141505 -0.252577342482713 5
-0.910658811730041 -2.705967905291747 -0.249788358714788 10
-0.915604303105565 -2.689569969504991 -0.248568178316321 16
-0.913959880993735 -2.654332228141304 -0.245604883062901 9
-0.913391205090203 -2.622902259697972 -0.242990210780471 16
-0.922541277883218 -2.619697949777123 -0.242990210780471 12
-0.922539143725831 -2.592222483965958 -0.240724161469032 11
-0.926860073830176 -2.575863398278502 -0.239503981070565 14
-0.932440315647766 -2.563250597218485 -0.238632423643088 21
-0.935880912343304 -2.545020448178387 -0.237237931759126 23
-0.948923981738755 -2.552943420293197 -0.238283800672097 24
-0.957829636132162 -2.549615504048442 -0.238283800672097 25
-0.967430805935371 -2.548119181763969 -0.238458112157593 21
-0.977033191694583 -2.546586874369952 -0.238632423643088 24
-0.985916486351038 -2.543160877397938 -0.238632423643088 23
-0.999147685097578 -2.550834808340509 -0.239678292556060 23
-1.010532267593144 -2.554918420741616 -0.240375538498041 22
-1.020922967793492 -2.555075766374993 -0.240724161469032 24
-1.026852757518416 -2.544106226988055 -0.240026915527051 23
-1.037983575615681 -2.546041214596689 -0.240549849983537 22
-1.049898984361693 -2.549771746910650 -0.241247095925518 24
-1.061853047612725 -2.553450027064143 -0.241944341867499 22
-1.070314754614015 -2.549914755730835 -0.241944341867499 19
-1.080764153777420 -2.549831948011389 -0.242292964838490 14
-1.090442070612478 -2.547875528857405 -0.242467276323985 18
-1.100909804035569 -2.547711530457862 -0.242815899294976 21
-1.113779745259435 -2.552983960483491 -0.243687456722452 21
-1.133124378708422 -2.572784486747052 -0.245953506033891 20
-1.155858388041931 -2.599763030129862 -0.248916801287312 21
-1.165741987316177 -2.597530218601072 -0.249091112772807 20
-1.179734646166739 -2.604334397696841 -0.250136981685779 20
-1.192132061554902 -2.607448434401579 -0.250834227627760 19
-1.208739375102389 -2.619552983434484 -0.252403030997218 14
-1.206941988146755 -2.591837673860284 -0.250136981685779 18
-1.218465495377720 -2.595247199560056 -0.250834227627760 20
-1.230929314851859 -2.598180313150372 -0.251531473569741 20
-1.245601624533969 -2.604435693009660 -0.252577342482713 20
-1.260746494262695 -2.612632598469157 -0.253797522881181 22
-1.268531521189584 -2.606645938057139 -0.253623211395685 21
-1.276744594001548 -2.600413601106974 -0.253448899910190 21
-1.291119925349394 -2.606653362264998 -0.254494768823162 24
-1.305554310437837 -2.612824319575006 -0.255540637736134 23
-1.320486795512499 -2.620935807139881 -0.256760818134601 21
-1.330530190282936 -2.618086658594929 -0.256935129620096 22
-1.381468511838061 -2.694985049294104 -0.264953457952881 21
-1.399102747611461 -2.706074903960659 -0.266522261322339 20
-1.412225054409192 -2.708241150753819 -0.267219507264320 17
-1.347479762420964 -2.562222916282704 -0.253274588424695 6
-1.339611886120049 -2.525820952672421 -0.250136981685779 13
-1.339023826795406 -2.503560600064440 -0.248393866830826 15
-1.346808933565314 -2.497117688218324 -0.248219555345330 17
-1.355517295736758 -2.492401234412845 -0.248219555345330 18
-1.368041189507613 -2.494642204775564 -0.248916801287312 18
-1.373848468709402 -2.484620870866552 -0.248393866830826 18
-1.380034366657955 -2.474348630999046 -0.247870932374340 17
-1.392569272735850 -2.476462937610909 -0.248568178316321 17
-1.407650031991182 -2.483965209757536 -0.249788358714788 15
-1.417300467360032 -2.480766423653662 -0.249962670200284 13
-1.436889583311896 -2.494795531168116 -0.251880096540732 9
-1.542628848772249 -2.656897641799971 -0.268788310633778 8
-1.570009245355418 -2.682447998556456 -0.271925917372694 12
-1.575313522067261 -2.670087323475765 -0.271228671430712 11
-1.578513892454770 -2.654297486068763 -0.270182802517740 12
-1.568306521881029 -2.616302464269360 -0.266870884293329 11
-1.568733641183941 -2.597443560135828 -0.265476392409367 10
-1.570539024691233 -2.580038725743388 -0.264256212010900 10
-1.574325922548771 -2.566049573434024 -0.263384654583423 10
-1.576986526317850 -2.550370925442986 -0.262338785670451 10
-1.574900737180008 -2.528216281171785 -0.260595670815498 11
-1.575241528224306 -2.509204032476844 -0.259201178931535 15
-1.571641404995411 -2.483211233342509 -0.257109441105592 17
-1.572800126699518 -2.465951428497476 -0.255889260707124 16
-1.573430188640519 -2.448988587357933 -0.254669080308657 28
-1.578720771594323 -2.438463955420525 -0.254146145852171 53
-1.582868459933819 -2.426263607624088 -0.253448899910190 30
-1.589139160138355 -2.417393840384323 -0.253100276939199 33
-1.601968770895720 -2.418476147174959 -0.253797522881181 32
-1.617037336478341 -2.422812641970873 -0.254843391794152 33
-1.621037388806769 -2.410540088992303 -0.254146145852171 32
-1.636147390156161 -2.414763498416623 -0.255192014765143 32
-1.645971033535798 -2.412903300844546 -0.255540637736134 33
-1.663411624281935 -2.420278931728911 -0.256935129620096 33
-1.676386746231152 -2.421009920698958 -0.257632375562078 33
-1.687107309558022 -2.418411613111336 -0.257980998533068 31
-1.697830131776689 -2.415767921445419 -0.258329621504059 34
-1.710857661341662 -2.416330926129455 -0.259026867446040 34
-1.726223725646005 -2.420076408054002 -0.260072736359012 34
-1.743961982612996 -2.426979911691789 -0.261467228242975 33
-1.747749970400163 -2.414421888837361 -0.260769982300993 33
-1.760862861991106 -2.414745715352950 -0.261467228242975 33
-1.778294689609062 -2.421740637021256 -0.262861720126937 33
-1.791476664265857 -2.421925686885450 -0.263558966068918 32
-1.810290808533037 -2.427807005027297 -0.264953457952881 32
-1.816361309675210 -2.418286970981559 -0.264604834981890 33
-1.831158893365851 -2.422104624240521 -0.265650703894862 32
-1.842016636710683 -2.418868137825619 -0.265999326865853 32
-1.858147198054526 -2.421584574978451 -0.267045195778825 32
-1.876335985132417 -2.427695080726710 -0.268439687662787 31
-1.881928953587978 -2.418314825385578 -0.268091064691796 31
-1.891588084369584 -2.413299029754801 -0.268265376177292 30
-1.907407955376669 -2.416064226181441 -0.269311245090264 32
-1.925750128004055 -2.421867223540879 -0.270705736974226 32
-1.938751476676142 -2.421689313795282 -0.271402982916208 32
-1.944691727144495 -2.411805054379490 -0.271054359945217 32
-1.958122698117960 -2.411188620538213 -0.271751605887198 31
-1.974095805960455 -2.413592195593943 -0.272797474800170 31
-1.990109460776630 -2.415913524369478 -0.273843343713142 33
-2.011251838816507 -2.424285904077965 -0.275586458568095 32
-2.017146954959984 -2.414192679955659 -0.275237835597104 32
-2.030693023016582 -2.413234691663410 -0.275935081539086 33
-2.044256918843187 -2.412211476043128 -0.276632327481067 31
-2.063012049794178 -2.417184802640830 -0.278026819365030 33
-2.081826683589898 -2.422056438300517 -0.279421311248992 33
-2.085052663532350 -2.408749112239668 -0.278724065307011 32
-2.106118510736120 -2.416842357206333 -0.280467180161964 32
-2.123741408649680 -2.419958400486912 -0.281687360560431 32
-2.142731026559684 -2.424473636201296 -0.283081852444394 31
-2.161777915203106 -2.428885640547469 -0.284476344328356 31
-2.170243138010861 -2.421324829805854 -0.284476344328356 31
-2.186691777080168 -2.422608539941142 -0.285522213241328 31
-2.200495461810552 -2.420858142009974 -0.286219459183309 31
-2.219694583093020 -2.424919415761889 -0.287613951067272 30
-2.236247956011158 -2.425946122147994 -0.288659819980244 32
-2.244702464287879 -2.418125380361593 -0.288659819980244 32
-2.253129621573454 -2.410275174480548 -0.288659819980244 32
-2.275185903236276 -2.416902819964848 -0.290402934835197 32
-2.290988839121926 -2.418421744405332 -0.291448803748169 36
-2.313169241436093 -2.424826294673454 -0.293191918603122 36
-2.321619372154658 -2.416737054315597 -0.293191918603122 36
-2.338352895582301 -2.417210346684687 -0.294237787516094 36
-2.352337369505588 -2.414741854953985 -0.294935033458075 36
-2.380285469817411 -2.426428024291631 -0.297375394255010 36
-2.402742780274755 -2.432278612606988 -0.299118509109963 34
-2.408408100894128 -2.421051625778361 -0.298769886138972 36
-2.421496441700288 -2.416430174942545 -0.299292820595458 33
-2.445483921152969 -2.423389522656874 -0.301210246935907 22
nan nan nan 0
nan nan nan 0
-2.345935366474755 -2.277342624595933 -0.286045147697814 1
nan nan nan 0
nan nan nan 0
nan nan nan 0
nan nan nan 0
nan nan nan 0
nan nan nan 0
nan nan nan 0
nan nan nan 0
nan nan nan 0
nan nan nan 0
nan nan nan 0
nan nan nan 0
nan nan nan 0
nan nan nan 0
nan nan nan 0
nan nan nan 0
nan nan nan 0
nan nan nan 0
nan nan nan 0
nan nan nan 0
nan nan nan 0
nan nan nan 0
nan nan nan 0
nan nan nan 0
nan nan nan 0
nan nan nan 0
nan nan nan 0
-2.344404310280629 -1.869504424030755 -0.262338785670451 1
nan nan nan 0
nan nan nan 0
-2.345004815995722 -1.830142040128331 -0.260247047844507 1
