# This PCD file was generated using the MATLAB® pcwrite function
# from Computer Vision Toolbox®.
# .PCD v.7 - Point Cloud Data file format
VERSION .7
FIELDS x y z intensity
SIZE 8 8 8 1
TYPE F F F U
COUNT 1 1 1 1
WIDTH 898
HEIGHT 1
VIEWPOINT 0 0 0 1 0 0 0
POINTS 898
DATA ascii
3.883661791146745 -0.946734693726348 0.069774720936259 19
3.870627723384027 -0.957883520876302 0.069600196871887 15
3.894412785101820 -0.978208878687642 0.070088864252131 8
3.896960982162413 -0.992598592087632 0.070193578690754 9
3.893472424862312 -1.006195477204788 0.070193578690754 9
3.880264779820893 -1.017244597169603 0.070019054626381 9
3.863162461097147 -1.027186101681728 0.069774720936259 11
3.871319945599258 -1.043112696490767 0.069984149813507 13
3.869584222479055 -1.057146762342107 0.070019054626381 13
3.858161901617646 -1.068512800773953 0.069879435374883 13
3.865960264752702 -1.085216468019660 0.070088864252131 13
3.850417069157384 -1.096093635622957 0.069879435374883 15
3.838882080687557 -1.107310583631823 0.069739816123385 17
3.844786569058440 -1.122837576599547 0.069914340187758 17
3.840843710727115 -1.136251545567303 0.069914340187758 18
3.834737888929819 -1.149747010310428 0.069879435374883 18
3.815393663221307 -1.158477883796704 0.069600196871887 19
3.811735375401344 -1.170458559928276 0.069600196871887 20
3.817174199529851 -1.186725165639419 0.069774720936259 21
3.828268163951828 -1.204844930951610 0.070053959439256 25
3.837376603088124 -1.222449571988535 0.070298293129378 24
3.821236420003147 -1.233489267707415 0.070088864252131 24
3.813105758009186 -1.245578504240668 0.070019054626381 23
3.824364969283347 -1.262566723663145 0.070298293129378 21
3.821831180034378 -1.276542076307811 0.070333197942253 19
3.813562997804885 -1.288594706661370 0.070263388316503 23
3.818502836464627 -1.305132402636236 0.070437912380876 17
3.804014730334472 -1.316514712284158 0.070263388316503 17
3.803170920505815 -1.331106378425921 0.070333197942253 16
3.814053126240450 -1.348380003572700 0.070612436445249 16
3.814972186162032 -1.363704624682689 0.070717150883873 15
3.794904115922915 -1.372238044746885 0.070437912380876 14
3.791969133611223 -1.386162931179638 0.070472817193751 13
3.802358443565404 -1.404272200558556 0.070752055696747 12
3.804927155483358 -1.420333662168280 0.070891674948246 12
3.801566665150640 -1.434976066245995 0.070926579761120 11
3.794666130189865 -1.447524552749596 0.070891674948246 9
nan nan nan 0
3.790315747912760 -1.475496541445815 0.070996389386869 7
nan nan nan 0
nan nan nan 0
3.782079961880863 -1.518086568748387 0.071136008638368 8
nan nan nan 0
nan nan nan 0
3.795815492820354 -1.569174510751803 0.071694485644361 8
nan nan nan 0
4.593345978785369 -1.937471713167622 0.087017698496296 43
4.624846305053909 -1.970756319120853 0.087750699566662 65
4.612428238621393 -1.984517050785629 0.087645985128038 65
4.617177325469116 -2.003774181739007 0.087855414005285 64
4.624807574543251 -2.026298887497750 0.088134652508282 64
4.615521100550025 -2.042426841978308 0.088099747695407 66
4.612015216236814 -2.060156735387357 0.088169557321156 66
4.616096749776900 -2.080369186345943 0.088378986198404 66
4.616087678683567 -2.099781655123923 0.088518605449902 66
4.626532357704361 -2.125032913453802 0.088867653578648 70
4.615457917487136 -2.139487591647735 0.088797843952899 68
4.619206464701552 -2.159863269247092 0.089007272830146 68
4.622489908415514 -2.181094089381102 0.089216701707393 70
4.625681284702846 -2.202374087097486 0.089426130584641 70
4.632385259539815 -2.225434733699259 0.089705369087637 68
4.617000324072465 -2.238908212493546 0.089565749836139 68
4.619934399548972 -2.260283734656130 0.089775178713386 70
4.622775371404165 -2.281706956630461 0.089984607590634 70
4.629103068723632 -2.304960133542843 0.090263846093630 66
4.625008288063484 -2.322092626487684 0.090333655719379 66
4.616874495017339 -2.338222771230912 0.090333655719379 66
4.618000027337968 -2.358067008568407 0.090508179783752 64
4.623962810798732 -2.381497337607399 0.090787418286749 62
4.624075106779581 -2.403039602650175 0.090961942351122 61
4.628056924187000 -2.425664140332593 0.091206276041244 62
4.623097410275435 -2.443673261974661 0.091276085666993 64
4.616303875407895 -2.460736644363156 0.091310990479867 66
4.621776960872096 -2.484409981043137 0.091590228982864 68
4.623624787640790 -2.506245527862428 0.091799657860111 68
4.628885750470114 -2.530042328882916 0.092078896363108 66
4.627031400434480 -2.550045522097828 0.092218515614606 68
4.620297830068314 -2.566346287601396 0.092253420427481 74
4.621779818792510 -2.588321063566250 0.092462849304728 71
4.623164564268418 -2.610337384429336 0.092672278181975 69
4.631403244288591 -2.636351839501798 0.093021326310721 74
4.615234848254495 -2.648521150368838 0.092881707059223 71
4.614616235646746 -2.669621983643851 0.093056231123596 73
4.620345674707012 -2.695586730081828 0.093370374439467 71
4.629868916232098 -2.722849232808370 0.093754327381087 76
4.634097431547187 -2.747151740151040 0.094033565884084 75
4.622763264982202 -2.762285294398085 0.093998661071209 87
4.611864605255342 -2.776568327144646 0.093963756258334 65
4.573081899479888 -2.775014218671043 0.093370374439467 49
4.542896250389703 -2.778440151189358 0.092951516684972 50
4.512742654821783 -2.781689313777388 0.092532658930477 48
4.472430340831153 -2.778430570081844 0.091904372298735 44
4.438975785929125 -2.779169145775256 0.091415704918491 26
3.794630395112284 -2.395159522774810 0.078326400090528 31
3.769373853218676 -2.397658083891950 0.077977351961783 31
3.747932548438587 -2.401513817474218 0.077698113458786 30
3.700888449380523 -2.389633402355863 0.076895302762671 29
3.680373537336719 -2.395545711234051 0.076650969072549 30
3.665300595478243 -2.403991172640906 0.076511349821051 28
nan nan nan 0
2.958034054733722 -1.969036141024319 0.062025852478106 3
2.984357702763366 -2.001627040238010 0.062723948735597 1
2.929304000307625 -1.979562006791912 0.061711709162235 30
2.914111554509641 -1.984147933679251 0.061537185097862 20
2.902220864569314 -1.990914389120549 0.061432470659238 18
2.875513229695416 -1.987389495012729 0.061013612904743 20
2.850506858081972 -1.984845257535308 0.060629659963123 20
2.827190558750818 -1.983299219065825 0.060280611834377 19
2.818617293959203 -1.992001758277231 0.060245707021503 20
2.800243767672445 -1.993709777477650 0.060001373331381 19
2.781892800090233 -1.995313896363035 0.059757039641259 20
2.755460596478361 -1.990958533326470 0.059338181886764 19
2.737176738536082 -1.992327136572277 0.059093848196642 19
2.729291104912787 -1.999734508841194 0.059058943383767 20
2.707813813272517 -1.998561833197946 0.058744800067896 20
2.699216267738431 -2.006808582843755 0.058709895255022 20
2.671387065621285 -2.000635241276026 0.058256132687652 20
2.658001680757358 -2.005130802705171 0.058116513436154 24
2.641433170935004 -2.007137656724656 0.057907084558907 24
2.629647007244214 -2.012699556143447 0.057802370120283 22
2.613103160669159 -2.014540871965577 0.057592941243036 22
2.585522624834746 -2.007706121604433 0.057139178675666 22
2.567472714289659 -2.008095325922593 0.056894844985544 22
2.555735031493279 -2.013332890972209 0.056790130546921 24
2.540859129706302 -2.016027171466384 0.056615606482548 22
2.529119953485008 -2.021138980863115 0.056510892043924 22
2.498682719911837 -2.011147454869958 0.055987319850806 22
2.485433698126751 -2.014820182188414 0.055847700599307 22
2.470640566340328 -2.017160303339339 0.055673176534934 21
2.460848260075866 -2.022802537686254 0.055603366909185 21
2.452232022457471 -2.030104985968556 0.055568462096311 22
2.424811230873253 -2.022428457208506 0.055114699528941 24
2.411612136102551 -2.025735581350976 0.054975080277443 26
2.397246751181674 -2.027265378037036 0.054800556213070 24
2.388633277427002 -2.034324406134639 0.054765651400196 24
2.375446179752893 -2.037442378009517 0.054626032148697 26
2.351673370005709 -2.031342944371848 0.054242079207077 26
2.326463557913441 -2.023790101402120 0.053823221452582 24
2.322393320022354 -2.034534051894128 0.053893031078331 24
2.304780598429653 -2.033367701713293 0.053648697388210 24
2.305143303401970 -2.048041359839571 0.053823221452582 26
2.277116627190205 -2.037407983570255 0.053334554072338 24
2.261077296428173 -2.037312735112130 0.053125125195091 24
2.249509228885265 -2.041161695016649 0.053020410756467 24
2.237941895234415 -2.044954767870867 0.052915696317844 24
2.229318539286338 -2.051400124862051 0.052880791504969 24
2.203076330441140 -2.041499960540480 0.052427028937600 26
2.186808439315471 -2.041373599315561 0.052217600060352 24
2.182583389401215 -2.051733846067326 0.052287409686101 24
2.169957800890127 -2.053462381030847 0.052147790434603 26
2.161329017725212 -2.059644902474975 0.052112885621729 26
2.136812539220063 -2.050561849765759 0.051694027867234 26
2.113823993837814 -2.042722545840889 0.051310074925614 24
2.110980031686498 -2.054272578129666 0.051414789364237 26
2.103796421391644 -2.061628758233244 0.051414789364237 26
2.088047107033893 -2.060532283140642 0.051205360486990 26
2.066657452086503 -2.053712884321624 0.050856312358244 26
2.052766974757029 -2.053483650697568 0.050681788293871 26
2.046995279097568 -2.062055805353625 0.050716693106746 26
2.038381046390737 -2.067764509331355 0.050681788293871 24
2.024156461887711 -2.067722330018775 0.050507264229498 26
2.004381623663266 -2.061870742149944 0.050193120913627 24
1.990227869953516 -2.061661263551683 0.050018596849255 26
1.981635380407257 -2.067152352790814 0.049983692036380 24
1.971650046807617 -2.071160229742310 0.049913882410631 24
1.965782048577102 -2.079483122352022 0.049948787223505 26
1.940719115379779 -2.067378910053456 0.049495024656136 26
1.931765479057709 -2.073015154422666 0.049460119843261 26
1.919084883201603 -2.073874803185686 0.049320500591763 24
1.909490537086898 -2.077282902787910 0.049250690966014 24
1.896835266811421 -2.078027928882452 0.049111071714516 25
1.884198127529481 -2.078709987722689 0.048971452463018 25
1.866228212375590 -2.073384028016296 0.048692213960021 25
1.858979381782981 -2.079885748401925 0.048692213960021 25
1.854362678464682 -2.089353326216778 0.048762023585770 25
1.844413855967147 -2.092813082006148 0.048692213960021 25
1.821294350364600 -2.081180571793482 0.048273356205526 25
1.811759056358694 -2.084190379931590 0.048203546579777 24
1.803166194233484 -2.088988142121412 0.048168641766902 27
1.791594302861454 -2.091027429959771 0.048063927328279 25
1.779101233709170 -2.091176238605889 0.047924308076781 25
1.761831111199520 -2.084845577723869 0.047645069573784 25
1.749401390674910 -2.084855392226130 0.047505450322286 25
1.739553180466856 -2.087876574972610 0.047435640696537 25
1.732254533192348 -2.093936028685278 0.047435640696537 25
1.727473314305702 -2.103060431977966 0.047505450322286 27
1.702427613910786 -2.087382485678130 0.047016782942042 25
1.693872468426419 -2.091758294792792 0.046981878129167 27
1.682801499464243 -2.092982953806654 0.046877163690544 25
1.674969791523941 -2.096696926183058 0.046842258877669 27
1.665155442311787 -2.099397459017804 0.046772449251920 27
1.649662308981319 -2.096346858575654 0.046563020374672 27
1.633716694645903 -2.091062012686158 0.046318686684550 24
1.623956318091062 -2.093591870041275 0.046248877058801 24
1.614198216026028 -2.096079104687941 0.046179067433052 24
1.604442566951137 -2.098523763434597 0.046109257807303 24
1.594689549067295 -2.100925893816031 0.046039448181554 24
1.575676605164056 -2.090234346498423 0.045690400052808 24
1.575559591178016 -2.105327808288095 0.045899828930056 24
1.561412438925211 -2.100911131607579 0.045690400052808 23
1.557631034179652 -2.111176062968020 0.045795114491432 24
1.538436218467967 -2.100467723331672 0.045446066362686 24
1.527566976850163 -2.100972939626436 0.045341351924063 24
1.519053602986291 -2.104670871443925 0.045306447111188 24
1.511697676035921 -2.109960535677803 0.045306447111188 24
1.501636789573684 -2.112227402252857 0.045236637485439 24
1.486183771964588 -2.106019346669992 0.044992303795317 26
1.478044238721933 -2.109298475952997 0.044957398982442 26
1.468388755452557 -2.111161662967154 0.044887589356693 27
1.461010480079160 -2.116274434335162 0.044887589356693 27
1.451353727166641 -2.118062257172694 0.044817779730944 27
1.437959471533217 -2.115098942827829 0.044643255666571 27
1.422738104281170 -2.108502080234628 0.044398921976449 30
1.419820237843968 -2.120101603827983 0.044538541227948 28
1.407983431296250 -2.118383202568074 0.044398921976449 30
1.404255007305693 -2.128047767509631 0.044503636415073 33
1.384767198783160 -2.114534761763079 0.044119683473453 30
1.374828930520769 -2.116242193232410 0.044049873847704 31
1.363099311734064 -2.114305596618289 0.043910254596205 30
1.358606827884872 -2.121945626347583 0.043980064221954 30
1.349046829746552 -2.123299446779015 0.043910254596205 30
1.338427484423149 -2.122920851937779 0.043805540157582 33
1.325706129072377 -2.119103488217272 0.043631016093209 30
1.315451507677423 -2.120779515234975 0.043561206467460 27
1.311184919825351 -2.130467411948376 0.043665920906083 33
1.304782370994800 -2.136737981637587 0.043700825718958 31
1.284881477475723 -2.120756058600075 0.043281967964463 30
1.274089329711499 -2.117928024665340 0.043142348712965 26
1.270787934985967 -2.129231010375160 0.043281967964463 28
1.262602927000191 -2.134094777646876 0.043281967964463 27
1.254133639437016 -2.136764494735259 0.043247063151589 30
1.241636357337862 -2.132488666444290 0.043072539087216 30
1.232184718415243 -2.133346569351265 0.043002729461467 30
1.225476542947068 -2.137207057808243 0.043002729461467 28
1.216031545018561 -2.137995333464072 0.042932919835717 27
1.207204966499965 -2.140696131907778 0.042898015022843 31
1.194844287942738 -2.136170833732858 0.042723490958470 26
1.182529970746238 -2.131585431950394 0.042548966894097 30
1.177974061345154 -2.140956275655056 0.042653681332721 28
1.167993446431254 -2.139585215528909 0.042548966894097 30
1.160517784454901 -2.143649238420347 0.042548966894097 31
1.147725680290359 -2.136915797667881 0.042339538016850 36
1.137439362207158 -2.135614177930810 0.042234823578226 50
1.133897070777315 -2.148808711848301 0.042409347642599 13
nan nan nan 0
nan nan nan 0
nan nan nan 0
1.285917336501511 -2.520491460200069 0.049390310217512 1
1.289747075794032 -2.549946777498414 0.049878977597756 4
1.289801421632439 -2.572308970202950 0.050228025726502 22
1.286154965616957 -2.587539655269449 0.050437454603749 32
1.268726006974001 -2.573854205421240 0.050088406475004 32
1.255344533087007 -2.569283695427825 0.049913882410631 30
1.242010479822813 -2.564651236375350 0.049739358346258 30
1.218340532154247 -2.538323663503390 0.049145976527390 27
1.164372718745651 -2.446650620378057 0.047296021445038 39
1.147295145109683 -2.432613785972650 0.046946973316293 52
1.133716614445669 -2.425734165169312 0.046737544439045 54
1.122721234443214 -2.424233158938401 0.046632830000422 52
1.114662138557055 -2.430149468529623 0.046667734813296 54
1.104517834605879 -2.430384534678773 0.046597925187547 54
1.093988378252587 -2.428564145663551 0.046493210748923 48
1.082244669328604 -2.425063673445526 0.046353591497425 46
1.074965587014254 -2.432672163396305 0.046423401123174 48
1.068071137843282 -2.440073446816799 0.046493210748923 46
1.066339898433527 -2.458278169573116 0.046772449251920 21
1.075907861563536 -2.504243372371514 0.047575259948035 19
1.078904105264793 -2.535584436375455 0.048098832141153 19
1.075482341634665 -2.552234446744544 0.048343165831275 27
1.078888178289681 -2.585500517902596 0.048901642837268 64
1.065274697635318 -2.578161920221004 0.048692213960021 48
1.055511561167149 -2.580013916727785 0.048657309147146 45
1.044997767825328 -2.579975759601307 0.048587499521397 42
1.032713681837714 -2.574147360807573 0.048412975457024 37
1.026674273423797 -2.585170513106783 0.048552594708523 39
1.017192253857893 -2.588916098338950 0.048552594708523 37
1.002350927736588 -2.577541134637090 0.048273356205526 37
0.990923656721957 -2.573386377891129 0.048133736954028 37
0.981934824874034 -2.576829669005392 0.048133736954028 37
0.972934028460148 -2.580241562263338 0.048133736954028 37
0.963921377152167 -2.583622016092120 0.048133736954028 37
0.947279963515904 -2.566335252621543 0.047749784012408 34
0.928027457833101 -2.541450515438975 0.047226211819289 27
0.883572048847256 -2.444839755448280 0.045376256736937 26
0.876378786444651 -2.451675116674711 0.045446066362686 24
0.888705330263757 -2.515205502756062 0.046563020374672 13
0.885856703492053 -2.535282318086591 0.046877163690544 18
0.883770609138812 -2.555061347789019 0.047191307006415 40
0.880023002292018 -2.573267584754058 0.047470545509411 49
0.873334930109486 -2.586100548547169 0.047645069573784 52
0.861136490933160 -2.579649296182015 0.047470545509411 43
0.851500024460727 -2.580740507748714 0.047435640696537 45
0.838146853592392 -2.570388848473359 0.047191307006415 40
0.832523437415958 -2.580621729268489 0.047330926257913 40
0.822295697523804 -2.579701566594191 0.047261116632164 40
0.813584294022279 -2.586655056233791 0.047330926257913 40
0.798616965000033 -2.570382782066047 0.046981878129167 40
0.788914896962690 -2.569193753530294 0.046912068503418 40
0.779941930811420 -2.571931928024318 0.046912068503418 40
0.772106722417000 -2.578470072024482 0.046981878129167 40
0.761400657741533 -2.575396584977756 0.046877163690544 37
0.745568635485472 -2.552953637966912 0.046423401123174 31
0.721144145744269 -2.501739749876259 0.045446066362686 24
0.692284161848621 -2.435120926761787 0.044189493099202 46
0.684860006738176 -2.441373360486447 0.044259302724951 55
0.673666919371815 -2.434112859757028 0.044084778660578 63
0.665692831384714 -2.438378663738101 0.044119683473453 64
0.654057733579921 -2.429101967947330 0.043910254596205 67
0.645574600614246 -2.431370256580238 0.043910254596205 55
0.638602878794930 -2.439412438620352 0.044014969034829 60
0.629084509758627 -2.437754192396407 0.043945159409080 56
0.620010673903277 -2.435951091037625 0.043875349783331 34
0.631449470899463 -2.517624851233986 0.045306447111188 16
0.633243101932843 -2.564574255154046 0.046109257807303 50
0.630430838103038 -2.592028711936326 0.046563020374672 58
0.619501190567919 -2.584382011679968 0.046388496310300 50
0.607260789156036 -2.572905177073122 0.046144162620178 41
0.597370867043604 -2.571113611103897 0.046074352994428 41
0.588838118083198 -2.575132541644546 0.046109257807303 41
0.579845640628997 -2.577172281666092 0.046109257807303 39
0.570413966146117 -2.577228174070275 0.046074352994428 38
0.560161813715251 -2.571290093064415 0.045934733742930 38
0.549507595580178 -2.565408390468935 0.045795114491432 38
0.542197317525732 -2.575138067969146 0.045934733742930 39
0.532799933880396 -2.575056783094547 0.045899828930056 35
0.523409729149473 -2.574941293343870 0.045864924117181 38
0.513635337191620 -2.572830648891755 0.045795114491432 37
0.503560758006518 -2.566670633086820 0.045655495239934 38
0.494598337664260 -2.568412751123571 0.045655495239934 38
0.484887337447499 -2.566193721302069 0.045585685614185 37
0.474104617901516 -2.558039608311637 0.045411161549812 34
0.445507256820966 -2.451468087191961 0.043491396841711 36
0.435544601955245 -2.445133436663001 0.043351777590212 36
0.441790490636827 -2.531345373328595 0.044852684543819 26
0.441038013243330 -2.580178648508159 0.045690400052808 59
0.429718507481530 -2.567896543745484 0.045446066362686 46
0.419459624120287 -2.561487253449259 0.045306447111188 46
0.412729685228589 -2.576757523186747 0.045550780801310 42
0.402185740211524 -2.568304426211008 0.045376256736937 41
0.394575186137255 -2.575553902318039 0.045480971175561 41
0.385286502403422 -2.574937856748760 0.045446066362686 39
0.375877504948057 -2.570265407128167 0.045341351924063 41
0.365773512038988 -2.563643216450773 0.045201732672564 39
0.356925218944842 -2.568927962310175 0.045271542298313 41
0.348224089825992 -2.572139830785842 0.045306447111188 41
0.339954356782093 -2.575262937470769 0.045341351924063 41
0.329689026126133 -2.566516920597465 0.045166827859690 41
0.320280056909646 -2.567708052487091 0.045166827859690 41
0.311555715470710 -2.570795565485699 0.045201732672564 41
0.303262936302952 -2.573800543572466 0.045236637485439 41
0.293368586334245 -2.566896400616638 0.045097018233941 42
0.281544981574677 -2.542066758185867 0.044643255666571 41
0.266274102366443 -2.483385085219402 0.043596111280334 22
0.253052234049232 -2.444563013536324 0.042898015022843 53
0.243323835847303 -2.433492797507617 0.042688586145595 62
0.236255718076296 -2.440216377516830 0.042793300584219 62
0.227179067251369 -2.435053049938684 0.042688586145595 35
0.216758828159496 -2.423956916203895 0.042479157268348 62
0.208467474512546 -2.426691135393154 0.042514062081223 58
0.201172574370118 -2.431319849216006 0.042583871706972 62
0.193474149089873 -2.441974502984217 0.042758395771345 57
0.183194541064387 -2.430735145082750 0.042548966894097 56
0.173705327316225 -2.417397935233552 0.042304633203975 61
0.167069384219301 -2.431896668502350 0.042548966894097 53
0.160140540394659 -2.456410546583587 0.042967824648592 41
0.157152254791063 -2.554781209965006 0.044678160479446 52
0.148001831959098 -2.551321530652470 0.044608350853697 52
0.139540531113527 -2.551798294381958 0.044608350853697 52
0.130530026504896 -2.550272754057628 0.044573446040822 48
0.122837043835538 -2.566670858787889 0.044852684543819 45
0.113522461450644 -2.559093080084887 0.044713065292320 48
0.103979558830774 -2.555495887507716 0.044643255666571 48
0.094463999374169 -2.539856765017144 0.044364017163575 50
0.086176402479342 -2.544153152365749 0.044433826789324 59
0.077355844534618 -2.546437237637329 0.044468731602198 55
0.068735355920733 -2.556686611724233 0.044643255666571 49
0.059529854802275 -2.544916075516849 0.044433826789324 49
0.050327798656818 -2.529113972326203 0.044154588286327 56
0.041433625334341 -2.525275388345220 0.044084778660578 72
0.032334428370189 -2.503409819141375 0.043700825718958 93
0.023633393161774 -2.507506648886336 0.043770635344707 81
0.014809219376359 -2.495575907142991 0.043561206467460 76
0.006088171235975 -2.491613018221682 0.043491396841711 87
-0.002177838884089 -2.495618896848815 0.043561206467460 73
-0.010828084223851 -2.481598356125510 0.043316872777338 77
-0.019682707988685 -2.451547536645239 0.042793300584219 100
-0.028309188936743 -2.457462583668131 0.042898015022843 58
-0.037697538740074 -2.511334488067596 0.043840444970456 67
-0.046648468530450 -2.521184365111887 0.044014969034829 64
-0.055401368805645 -2.539008786541051 0.044329112350700 48
-0.064719238834969 -2.556791426739403 0.044643255666571 48
-0.073298237352481 -2.544556740070434 0.044433826789324 49
-0.081986282995351 -2.538289419904438 0.044329112350700 52
-0.090917599398965 -2.539986185809017 0.044364017163575 49
-0.100411313252763 -2.555638579278053 0.044643255666571 49
-0.109758955197911 -2.565261845966967 0.044817779730944 45
-0.118157989058842 -2.552877745732389 0.044608350853697 41
-0.127565613526597 -2.562435854486831 0.044782874918069 44
-0.136083812286086 -2.553987505011952 0.044643255666571 44
-0.144782744302846 -2.565526494433715 0.044852684543819 44
-0.153737220925411 -2.565005478277063 0.044852684543819 45
-0.162563217441289 -2.562457524907511 0.044817779730944 45
-0.171239728374257 -2.557884003350773 0.044747970105195 46
-0.180448438874201 -2.561260183489341 0.044817779730944 48
-0.189387806004813 -2.560614696817284 0.044817779730944 52
-0.197398113796812 -2.547975682714334 0.044608350853697 46
-0.201125660097070 -2.483489675285822 0.043491396841711 17
-0.204237104682429 -2.417016873873961 0.042339538016850 46
-0.215127415307200 -2.444177149882084 0.042828205397094 53
-0.222564193563806 -2.431463102667043 0.042618776519846 60
-0.232185609701497 -2.442615726525564 0.042828205397094 53
-0.238748734300056 -2.421889874265115 0.042479157268348 53
-0.248013746925606 -2.428999139815384 0.042618776519846 51
-0.255857515402530 -2.426174673365973 0.042583871706972 47
-0.264758206174528 -2.429242630066419 0.042653681332721 58
-0.274354220259113 -2.438239427670810 0.042828205397094 55
-0.285168919462107 -2.457130524036275 0.043177253525839 41
-0.304905021860507 -2.549440780693726 0.044817779730944 38
-0.315268739574511 -2.560269160133765 0.045027208608191 44
-0.326214392379529 -2.575023785531819 0.045306447111188 41
-0.335200915391018 -2.573869396875293 0.045306447111188 39
-0.343653025342325 -2.568719573017280 0.045236637485439 37
-0.352617436303357 -2.567504350579344 0.045236637485439 39
-0.363251520874489 -2.578138667262591 0.045446066362686 38
-0.372820501795014 -2.580813278498528 0.045515875988435 37
-0.381826949967952 -2.579496168888641 0.045515875988435 37
-0.389629884516877 -2.570239200622368 0.045376256736937 38
-0.398763502477466 -2.572885213946410 0.045446066362686 37
-0.408368450466262 -2.575427637053076 0.045515875988435 37
-0.417805121701887 -2.573913593210284 0.045515875988435 37
-0.427441793029514 -2.576384959364342 0.045585685614185 39
-0.433980058330849 -2.563123544485458 0.045376256736937 44
-0.442583674138231 -2.559622599758019 0.045341351924063 66
-0.453601251010466 -2.569877629664520 0.045550780801310 44
-0.461860116440821 -2.564342550070524 0.045480971175561 15
-0.461414037605374 -2.511578446676264 0.044573446040822 11
-0.458764390078407 -2.449021791000796 0.043491396841711 18
-0.469935615141494 -2.461154953166588 0.043735730531832 28
-0.494181787136733 -2.539978015440969 0.045166827859690 27
-0.511923769469412 -2.585403959972536 0.046004543368679 30
-0.520154885701593 -2.579680773878181 0.045934733742930 30
-0.528352293900170 -2.573931673970029 0.045864924117181 30
-0.536106983801007 -2.566199389199904 0.045760209678557 33
-0.547971745531499 -2.578004373170961 0.046004543368679 30
-0.557812492156428 -2.579984956853505 0.046074352994428 33
-0.567673732400481 -2.581928203842739 0.046144162620178 33
-0.574065565071097 -2.568221705234104 0.045934733742930 31
-0.582140775378367 -2.562302192634116 0.045864924117181 33
-0.594230167657421 -2.573893634979949 0.046109257807303 34
-0.604124377228134 -2.575697426051774 0.046179067433052 34
-0.615428684632787 -2.583299223606597 0.046353591497425 38
-0.623501907122185 -2.577247986389873 0.046283781871676 41
-0.630586405844051 -2.567287966127050 0.046144162620178 53
-0.639579803801849 -2.567123130724314 0.046179067433052 63
-0.651968251100024 -2.578445707666875 0.046423401123174 20
-0.649589286759255 -2.533654541227355 0.045655495239934 13
-0.642321068690050 -2.469442034764566 0.044538541227948 12
-0.642689615385175 -2.434202719832629 0.043945159409080 19
nan nan nan 0
-0.661338190592048 -2.437491401001219 0.044084778660578 52
-0.671433669347823 -2.440952297027895 0.044189493099202 55
-0.677688589057556 -2.428844346342936 0.044014969034829 50
-0.687250992742285 -2.430312450131709 0.044084778660578 60
-0.696957979706247 -2.433787349630904 0.044189493099202 55
-0.709907051938891 -2.446703600667054 0.044468731602198 52
-0.746196329860179 -2.540267565842711 0.046213972245927 24
-0.760191548446575 -2.554897247274862 0.046528115561798 26
-0.769418380168770 -2.550045046192856 0.046493210748923 24
-0.782989575588453 -2.562643100884474 0.046772449251920 27
-0.791626804920203 -2.562081199598733 0.046807354064794 25
-0.803550270853722 -2.568844811454824 0.046981878129167 27
-0.809494069292289 -2.556492210703186 0.046807354064794 27
-0.818412960730702 -2.553650974059192 0.046807354064794 27
-0.832705269996542 -2.565850499565464 0.047086592567791 25
-0.844776244319391 -2.572427546868581 0.047261116632164 27
-0.855192701591219 -2.575305403479767 0.047365831070787 27
-0.859082352727759 -2.557139879637423 0.047086592567791 25
-0.871667830627406 -2.563440184576967 0.047261116632164 27
-0.882561727543108 -2.566054807505696 0.047365831070787 27
-0.890199605762821 -2.559181069845427 0.047296021445038 25
-0.905763017890148 -2.574921999356066 0.047645069573784 27
-0.911617528770279 -2.564367507481805 0.047505450322286 27
-0.925974387368339 -2.576224380261102 0.047784688825282 25
-0.935194988032236 -2.575019149603293 0.047819593638157 22
-1.005514881708190 -2.738808199338362 0.050926121983993 29
-1.067944403731102 -2.877763724374459 0.053578887762460 9
-1.062533245847102 -2.832827227640715 0.052810981879220 3
-1.070997583864663 -2.825361312134323 0.052741172253471 3
-1.066546945712379 -2.784258093430362 0.052043075995979 4
-1.064709926583793 -2.750680299180691 0.051484598989986 8
-1.069206708972102 -2.733910651191997 0.051240265299864 21
-1.080470347051391 -2.735929736341616 0.051344979738488 29
-1.092977949460942 -2.739570867500784 0.051484598989986 30
-1.107498464320664 -2.746674148676947 0.051694027867234 30
-1.117833672798594 -2.744643510090406 0.051728932680108 30
-1.129970736411134 -2.748319447985441 0.051868551931607 32
-1.138023552948429 -2.740664752068404 0.051798742305857 52
-1.145740069607355 -2.730943320609015 0.051694027867234 16
-1.153705744584345 -2.723244754884151 0.051624218241485 11
-1.158013048727807 -2.708371890714191 0.051414789364237 13
-1.167459975889304 -2.704313170498413 0.051414789364237 13
-1.176892677919425 -2.700221499080080 0.051414789364237 14
-1.186311039883668 -2.696096926314921 0.051414789364237 13
-1.200925148113259 -2.704941796718443 0.051659123054359 14
-1.211177651280194 -2.702558126021021 0.051694027867234 13
-1.226021847790625 -2.709031646164001 0.051903456744481 13
-1.231316424645992 -2.695640921918346 0.051728932680108 13
-1.243230041685784 -2.696774431886422 0.051833647118732 11
-1.260227700123402 -2.708736006294167 0.052147790434603 6
-1.268353729614079 -2.702731777984311 0.052112885621729 11
-1.284627076764392 -2.712746272501997 0.052392124124725 9
-1.295812803793335 -2.711854148554531 0.052461933750474 8
-1.308744822020759 -2.714519491080444 0.052601553001973 8
-1.319961742278679 -2.713531043949852 0.052671362627722 8
-1.328544693791303 -2.707111818877765 0.052636457814847 14
-1.340647959771332 -2.707834082197485 0.052741172253471 16
-1.349198388090107 -2.701348877680841 0.052706267440596 14
-1.357719887491667 -2.694836995936592 0.052671362627722 13
-1.373460187007729 -2.702560090689547 0.052915696317844 13
-1.391095257124614 -2.713765017420995 0.053229839633715 9
-1.402396389256934 -2.712445301713555 0.053299649259464 6
-1.424800371654763 -2.732356989473652 0.053788316639708 8
-1.493899209802863 -2.840638424948539 0.056022224663680 16
-1.531410161329647 -2.888672014073690 0.057069369049917 25
-1.549969412519065 -2.899180220814821 0.057383512365788 27
-1.566722673502513 -2.906073484220950 0.057627846055910 36
-1.573036849222424 -2.893559429969821 0.057488226804412 55
-1.574476702171834 -2.872269179324138 0.057174083488541 21
-1.582558532264324 -2.863255418900660 0.057104273862792 19
-1.578420873311367 -2.833534580660274 0.056615606482548 15
-1.586343689525908 -2.824520538349680 0.056545796856799 15
-1.578457958907456 -2.787644113586227 0.055917510225056 13
-1.578265309453461 -2.764750758928555 0.055568462096311 13
-1.583916760508505 -2.752292015604654 0.055428842844812 13
-1.581472732215089 -2.725990076797879 0.055009985090318 14
-1.582902545068263 -2.706643692508198 0.054730746587321 14
-1.576092475088198 -2.673539578008668 0.054172269581328 14
-1.576779742701915 -2.654544251694832 0.053893031078331 16
-1.577818420794115 -2.635298577438324 0.053613792575335 16
-1.576219617249926 -2.612929119818511 0.053264744446589 14
-1.585330839110594 -2.607411167722487 0.053264744446589 14
-1.576064390740249 -2.570896038261616 0.052636457814847 14
-1.572415928715938 -2.544964728510855 0.052217600060352 14
-1.574947861824465 -2.529275465951610 0.052008171183105 14
-1.576326569177902 -2.511905860583120 0.051763837492983 16
-1.579740968800641 -2.497937752273418 0.051589313428610 22
-1.570180366332582 -2.463740455515340 0.050995931609742 34
-1.575100842482548 -2.453471707606511 0.050891217171119 32
-1.580396910586465 -2.442921680314161 0.050786502732495 47
-1.591098745436490 -2.440740546998748 0.050856312358244 68
-1.591923677574727 -2.423472185190549 0.050611978668122 48
-1.603684593179718 -2.422903122833911 0.050716693106746 52
-1.607694253823414 -2.410635838492289 0.050577073855248 52
-1.625021711188244 -2.418287425774726 0.050856312358244 52
-1.635695423851195 -2.415912045272330 0.050926121983993 50
-1.654540188434576 -2.427284825022558 0.051275170112739 52
-1.663002913619164 -2.421494614122460 0.051275170112739 52
-1.667314570253576 -2.408806193793567 0.051135550861241 50
-1.689438689610592 -2.422654547598384 0.051554408615735 52
-1.700911005070767 -2.421948200898278 0.051659123054359 50
-1.716284636289544 -2.425790737173548 0.051868551931607 50
-1.720838282179341 -2.415200221868584 0.051763837492983 48
-1.733922637228671 -2.415676782867267 0.051903456744481 48
-1.747031230334043 -2.416091347295958 0.052043075995979 47
-1.766050623242138 -2.424525503625810 0.052357219311851 47
-1.775686039262686 -2.419958296189688 0.052392124124725 40
-1.788876942238985 -2.420177617751134 0.052531743376223 39
-1.798929829618960 -2.415208524249048 0.052566648189098 30
-1.809749719543089 -2.412113462489361 0.052636457814847 29
-1.828587198114761 -2.420458859954183 0.052950601130718 29
-1.840657913341322 -2.418835169982404 0.053055315569342 29
-1.847077456945534 -2.408898794927574 0.052985505943593 32
-1.865253353382986 -2.415097678085209 0.053264744446589 32
-1.883072305402753 -2.421527562204291 0.053543982949586 39
-1.898911899744828 -2.424385317503071 0.053753411826833 43
-1.911078657200241 -2.422451995030841 0.053858126265457 42
-1.920766969797997 -2.417331956710583 0.053893031078331 43
-1.934191241228120 -2.416857611663285 0.054032650329830 48
-1.950145383771991 -2.419432739093213 0.054242079207077 48
-1.967401326607283 -2.423478337199137 0.054486412897199 48
-1.984709167395662 -2.427432813948434 0.054730746587321 48
-1.992747912082918 -2.420837934325049 0.054730746587321 50
-2.006291139454786 -2.420025021915669 0.054870365838819 48
-2.023274752772291 -2.424105122450357 0.055114699528941 48
-2.040731142352491 -2.427742939866935 0.055359033219063 45
-2.055653369567173 -2.428235830433811 0.055533557283436 45
-2.061522229026358 -2.418002041340321 0.055463747657687 43
-2.072555421141698 -2.413825604784158 0.055533557283436 45
-2.094048244952492 -2.421702517284841 0.055882605412182 43
-2.109054980275321 -2.421918390121913 0.056057129476555 42
-2.125407148769143 -2.423562362798210 0.056266558353802 42
-2.136501473005713 -2.419126220247156 0.056336367979551 40
-2.152906510890031 -2.420618955603121 0.056545796856799 42
-2.168013743147288 -2.420536968261192 0.056720320921171 45
-2.185825261659279 -2.423348706566425 0.056964654611293 43
-2.200993654483062 -2.423105042540576 0.057139178675666 43
-2.212137835350381 -2.418358395496594 0.057208988301415 45
-2.230558933708175 -2.423166925127845 0.057488226804412 43
-2.247160437641950 -2.424165206421724 0.057697655681659 45
-2.261066881060085 -2.422153465204368 0.057837274933158 43
-2.280465189387249 -2.425902098366504 0.058116513436154 43
-2.291668727187884 -2.420831426728760 0.058186323061903 41
-2.305624192479928 -2.418606865016416 0.058325942313401 39
-2.325131307583718 -2.422084605309135 0.058605180816398 41
-2.341910943905103 -2.422580023962902 0.058814609693645 39
-2.356904723040824 -2.421966227800531 0.058989133758018 39
-2.366744216002997 -2.415152578800591 0.059024038570893 39
-2.387801555105038 -2.419686490768656 0.059338181886764 39
-2.396233289874235 -2.411336766332914 0.059338181886764 39
-2.425853202243740 -2.424160228112464 0.059861754079882 35
-2.444236241126246 -2.425537560166411 0.060106087770004 24
nan nan nan 0
nan nan nan 0
-2.310318005623068 -2.245117527888886 0.056231653540927 3
-2.315262962482580 -2.234262129170263 0.056161843915178 9
-2.321604103724882 -2.224783169721220 0.056126939102304 30
-2.304729627152308 -2.193230806308773 0.055533557283436 27
-2.306177299212200 -2.180081139826597 0.055393938031938 28
-2.316689060701651 -2.174755059477059 0.055463747657687 30
-2.327191703724467 -2.169382123585299 0.055533557283436 36
-2.321542822404469 -2.149019716071348 0.055219413967565 32
-2.317252508141862 -2.130076616140878 0.054940175464568 30
-2.311381456077497 -2.109841643610430 0.054626032148697 27
-2.309842388353294 -2.093702694810022 0.054416603271450 27
-2.315650405483433 -2.084289286653168 0.054381698458575 29
-2.310984164891027 -2.065532646425535 0.054102459955579 29
-2.300232938955908 -2.041524552239571 0.053683602201084 29
-2.305844951285626 -2.032160642739431 0.053648697388210 27
-2.320448620177550 -2.030683939452069 0.053823221452582 14
-2.383009855113671 -2.071518863135684 0.055114699528941 1
nan nan nan 0
nan nan nan 0
nan nan nan 0
nan nan nan 0
nan nan nan 0
nan nan nan 0
nan nan nan 0
nan nan nan 0
nan nan nan 0
nan nan nan 0
nan nan nan 0
nan nan nan 0
nan nan nan 0
nan nan nan 0
-2.487819620092843 -1.944397055073099 0.055114699528941 1
-2.355564400622311 -1.827821619513713 0.052043075995979 1
nan nan nan 0
nan nan nan 0
nan nan nan 0
nan nan nan 0
nan nan nan 0
nan nan nan 0
nan nan nan 0
nan nan nan 0
nan nan nan 0
nan nan nan 0
nan nan nan 0
nan nan nan 0
nan nan nan 0
nan nan nan 0
nan nan nan 0
nan nan nan 0
nan nan nan 0
nan nan nan 0
nan nan nan 0
nan nan nan 0
nan nan nan 0
nan nan nan 0
nan nan nan 0
nan nan nan 0
nan nan nan 0
nan nan nan 0
nan nan nan 0
nan nan nan 0
nan nan nan 0
nan nan nan 0
nan nan nan 0
nan nan nan 0
nan nan nan 0
nan nan nan 0
nan nan nan 0
nan nan nan 0
-2.377231748344111 -1.397503616464603 0.048133736954028 1
-2.318181371934788 -1.351923418540334 0.046842258877669 6
nan nan nan 0
nan nan nan 0
nan nan nan 0
-2.400786074960990 -1.356640470294266 0.048133736954028 1
-2.339220374978504 -1.311099198722537 0.046807354064794 3
nan nan nan 0
nan nan nan 0
nan nan nan 0
nan nan nan 0
nan nan nan 0
nan nan nan 0
nan nan nan 0
nan nan nan 0
nan nan nan 0
nan nan nan 0
nan nan nan 0
nan nan nan 0
nan nan nan 0
nan nan nan 0
nan nan nan 0
nan nan nan 0
nan nan nan 0
nan nan nan 0
nan nan nan 0
nan nan nan 0
nan nan nan 0
nan nan nan 0
nan nan nan 0
nan nan nan 0
nan nan nan 0
nan nan nan 0
nan nan nan 0
nan nan nan 0
nan nan nan 0
nan nan nan 0
nan nan nan 0
nan nan nan 0
nan nan nan 0
-3.286662725771158 -1.361380275960537 0.062095662103855 1
-3.202588201055470 -1.313477144885218 0.060420231085876 5
-3.205300805614702 -1.301537689771850 0.060385326273001 11
-3.215390661843739 -1.292578758413889 0.060490040711625 8
-3.199445211132689 -1.273213885870357 0.060106087770004 5
-5.491593146275033 -2.165410741336783 0.103039007605722 14
-5.500981228660019 -2.146955353636591 0.103073912418596 20
-5.502845873096263 -2.125578660321652 0.102969197979973 22
-5.508364126779973 -2.105643174446634 0.102934293167098 16
nan nan nan 0
-3.208131223645409 -1.200747673430936 0.059791944454133 5
-3.214386006541919 -1.189675312450535 0.059826849267008 5
-5.511291569374155 -2.017937097905309 0.102445625786854 6
-5.512661394663345 -1.996643855486699 0.102340911348231 20
-5.497006957790930 -1.969295915039012 0.101922053593736 26
-5.496308076464575 -1.947424418212335 0.101782434342237 20
-5.514395565055116 -1.932194403246602 0.101991863219485 7
-3.215532629935995 -1.115363885178891 0.059407991512513 5
-3.209948670746588 -1.100889153142261 0.059233467448140 6
-3.221537703055439 -1.091683866496179 0.059373086699639 5
-5.495004561193634 -1.840735915568045 0.101154147710495 9
-5.504874913517128 -1.823761469324043 0.101223957336244 20
-5.501705409607383 -1.801423492111806 0.101049433271872 20
-5.512076371445638 -1.782477201555886 0.101119242897621 17
nan nan nan 0
-3.213182734535020 -1.014345876007113 0.058814609693645 5
-3.216703886593829 -1.003123595405241 0.058814609693645 5
-3.214106761569084 -0.991245112691629 0.058709895255022 5
-5.499672060016618 -1.675122933229677 0.100351337014380 12
-5.493996114823428 -1.652459466534576 0.100141908137133 18
-5.503564704368278 -1.634410339068719 0.100211717762882 20
-5.495803850054762 -1.611251241689170 0.099967384072760 14
nan nan nan 0
-3.217015972904023 -0.918212484251792 0.058395751939151 5
-3.208652693520763 -0.903724650637842 0.058186323061903 5
-3.205852128714784 -0.891472184397596 0.058081608623280 6
-5.499945597972985 -1.508742691861487 0.099548526318265 13
-5.507108872256295 -1.490057384586296 0.099583431131140 21
-5.518072887032133 -1.472371518005466 0.099688145569763 21
-5.491984349798020 -1.445918811823143 0.099129668563770 14
nan nan nan 0
-3.210113597113123 -0.821231723241226 0.057837274933158 6
-3.209082628207362 -0.809043636208634 0.057767465307408 6
-3.217709318655313 -0.799283148483820 0.057872179746032 6
-5.502785938943818 -1.346523152682174 0.098885334873648 13
-5.501620550446733 -1.325901092815247 0.098780620435025 22
-5.504269632104210 -1.306227047929136 0.098745715622150 23
-5.506848422513882 -1.286550670314133 0.098710810809276 15
nan nan nan 0
-3.208133895405873 -0.727103867763497 0.057418417178663 6
-3.198941830179765 -0.713289771960640 0.057208988301415 6
-3.203365458704547 -0.702547418100535 0.057243893114290 6
-5.514364011264831 -1.189225758277623 0.098466477119154 11
-5.516525373776806 -1.169555054732348 0.098431572306279 27
-5.500997769704883 -1.146212613851756 0.098082524177533 21
-5.510842471563063 -1.128206771735418 0.098187238616157 18
nan nan nan 0
-3.207566877720621 -0.633370201435013 0.057069369049917 6
-3.213684520453420 -0.622930908896278 0.057139178675666 7
-3.219768318672984 -0.612456615383714 0.057208988301415 6
-5.510035430475003 -1.028189303286265 0.097838190487411 7
-5.503579886912859 -1.008110230395994 0.097663666423039 20
-5.503128888802927 -0.988186152674744 0.097593856797289 22
-5.514422521710436 -0.970356851736587 0.097733476048788 21
-5.517776103479134 -0.951102013211022 0.097733476048788 6
-3.208320457531697 -0.540343152872380 0.056790130546921 6
-3.214133203605470 -0.529791182150476 0.056859940172670 7
-3.223678061133838 -0.520967185521149 0.056999559424168 6
-5.532492895513033 -0.874281250400296 0.097768380861662 3
-5.513772114284964 -0.851606332134869 0.097384427920042 20
-5.494960709147282 -0.829072803064699 0.097000474978422 20
-5.513647997504570 -0.812218207724267 0.097279713481418 20
-5.514470226705991 -0.792682512712491 0.097244808668544 12
nan nan nan 0
-3.203667062173587 -0.438278175317374 0.056441082418175 6
-3.213106121772914 -0.428149126384712 0.056580701669673 6
-3.218547236131240 -0.417445096224551 0.056650511295422 6
-5.628525464723413 -0.710050104866277 0.099024954125147 12
-5.644863538498361 -0.692102044664229 0.099269287815269 15
-5.708800800189515 -0.679722761804391 0.100351337014380 15
-5.711138695441885 -0.659791187108302 0.100351337014380 12
-5.753152442287381 -0.644302714442664 0.101049433271872 2
-3.220619555730360 -0.349302519465598 0.056545796856799 6
-3.219771435717837 -0.338411614481392 0.056510892043924 7
-3.208996346545295 -0.325957962173411 0.056301463166677 6
-5.717803433974372 -0.559628006532461 0.100281527388631 6
-5.713749504993983 -0.539102216957223 0.100176812950007 13
-5.723471677999528 -0.520876726843922 0.100316432201506 15
-5.727247093680781 -0.501069193908864 0.100351337014380 14
-5.709034437451201 -0.479401016075143 0.100002288885635 8
-3.211132400868675 -0.258361578473715 0.056231653540927 4
-3.211971502841615 -0.247711659139069 0.056231653540927 7
-3.216805208608319 -0.236791881439544 0.056301463166677 7
-3.231615257211037 -0.225976552364776 0.056545796856799 6
-5.712541027239856 -0.379426556385263 0.099932479259885 11
-5.719755024062853 -0.360858732171853 0.100037193698509 15
-5.722975964255289 -0.341009805805902 0.100072098511384 16
-5.706162423361190 -0.320023043851486 0.099757955195513 15
-5.721223304424584 -0.300837901745576 0.100002288885635 5
-3.207594111332408 -0.158561077129652 0.056057129476555 6
-3.222111174529742 -0.148005824938955 0.056301463166677 7
-3.218612386671253 -0.136588086985781 0.056231653540927 7
-5.728784870375937 -0.223081787807292 0.100072098511384 8
-5.725567121367178 -0.201942271297525 0.100002288885635 13
-5.722239776099877 -0.181828062766479 0.099932479259885 17
-5.714815731947777 -0.162623906525311 0.099792860008387 17
-5.723344869125546 -0.142874100673510 0.099932479259885 12
-3.224765446100519 -0.069238449444003 0.056301463166677 4
-3.212991253339732 -0.057765817328719 0.056092034289429 10
-3.207166704110167 -0.047022888714492 0.055987319850806 12
-3.213310017384075 -0.035894510282623 0.056092034289429 12
-5.714953157462118 -0.044886060074142 0.099757955195513 11
-3.209480549219536 -0.014004089588462 0.056022224663680 19
-3.211509573989741 -0.002802571512699 0.056057129476555 25
-3.197501971412343 0.008371059710810 0.055812795786433 39
-3.207458205082224 0.018473837355583 0.055987319850806 16
-3.217372227607315 0.029762330372282 0.056161843915178 13
-3.213242475527309 0.041502736733938 0.056092034289429 10
-3.221075732877395 0.052850016162805 0.056231653540927 9
-5.721995406164105 0.113864157909733 0.099897574447011 10
-5.711567343088481 0.133603138389705 0.099723050382638 13
-5.731082719603833 0.153076569591379 0.100072098511384 17
-5.730513466942392 0.173080849002491 0.100072098511384 17
-5.739900865479589 0.192417954278769 0.100246622575756 14
-5.717212638527752 0.211639063199795 0.099862669634136 3
-3.216915925758130 0.129204690457081 0.056196748728053 6
-3.222438695040045 0.140694711890323 0.056301463166677 7
-3.231915324037550 0.152413257682994 0.056475987231049 6
-5.538053954017626 0.280545710686113 0.096791046101174 18
-5.535044157839013 0.299767276224779 0.096756141288300 11
-3.198200004880578 0.184407052012937 0.055917510225056 45
-3.097705426646466 0.190006460241353 0.054172269581328 4
-2.979288530226855 0.193184111176062 0.052112885621729 14
-2.936735169768137 0.200206518651124 0.051379884551363 39
-2.949980471154996 0.211457229469949 0.051624218241485 73
-2.967248670784238 0.222066954605833 0.051938361557356 91
-2.936551650333927 0.230080256336178 0.051414789364237 61
-2.931702640278064 0.240514702341218 0.051344979738488 69
-2.934830060110606 0.251087709189055 0.051414789364237 69
-2.926013923945205 0.260110310846568 0.051275170112739 69
-2.921105722353029 0.269954384838975 0.051205360486990 69
-2.928058760010473 0.281424218896641 0.051344979738488 69
-2.927058567426528 0.291643336818482 0.051344979738488 71
-2.934032046383475 0.302167646947256 0.051484598989986 66
-2.925005621103047 0.311560282403319 0.051344979738488 69
-2.923844048885988 0.322278871242979 0.051344979738488 69
-2.926675033707148 0.332935078521169 0.051414789364237 69
-2.929467202016277 0.343614971119955 0.051484598989986 66
-2.928249914614359 0.353838626534531 0.051484598989986 69
-2.923154867800415 0.362543981179344 0.051414789364237 69
-2.921871544279644 0.372745487113552 0.051414789364237 69
-2.924518066902502 0.383462400278956 0.051484598989986 69
-2.927125325274089 0.394202325070952 0.051554408615735 69
-2.929693191012724 0.404965117787498 0.051624218241485 69
-2.928261750257714 0.415189188284796 0.051624218241485 69
-2.918730753730815 0.425276525678049 0.051484598989986 71
-2.925139607798617 0.436643120842078 0.051624218241485 66
-2.931660799355571 0.447036310214123 0.051763837492983 66
-2.937985612770771 0.458500349323673 0.051903456744481 69
-2.924519095676553 0.466861635290433 0.051694027867234 69
-2.922871627277484 0.477067267729757 0.051694027867234 66
-2.927105874545102 0.488254123893580 0.051798742305857 65
-2.927354999493814 0.498804550866310 0.051833647118732 69
-2.931506307208197 0.510048210855893 0.051938361557356 65
-2.923801377510013 0.519229022587264 0.051833647118732 66
-2.921878669399149 0.529941802782745 0.051833647118732 69
-2.925910038384693 0.541229021652037 0.051938361557356 63
-2.935889893087240 0.553150199874306 0.052147790434603 65
-2.931977336081095 0.563017893018494 0.052112885621729 66
-2.914194713361453 0.570685943091761 0.051833647118732 66
-2.920029162468210 0.582419496512620 0.051973266370230 66
-2.922104688441716 0.592384763500734 0.052043075995979 66
-2.929811227090072 0.604601931737651 0.052217600060352 65
-2.931489442342460 0.616158807632424 0.052287409686101 63
-2.921498835724328 0.624715263791582 0.052147790434603 65
-2.921365232319739 0.634824499929035 0.052182695247478 66
