# This PCD file was generated using the MATLAB® pcwrite function
# from Computer Vision Toolbox®.
# .PCD v.7 - Point Cloud Data file format
VERSION .7
FIELDS x y z intensity
SIZE 8 8 8 1
TYPE F F F U
COUNT 1 1 1 1
WIDTH 840
HEIGHT 1
VIEWPOINT 0 0 0 1 0 0 0
POINTS 840
DATA ascii
2.276998192367945 7.319597582268063 2.053987941933605 90
2.306132954151471 7.318572966488505 2.056058494294425 88
2.336256579927877 7.329291369703996 2.061234875196475 90
2.364198850555236 7.328445845310309 2.063305427557296 90
2.390443207174302 7.317895039483671 2.062787789467090 84
2.419004198033779 7.318677527495814 2.065375979918116 90
2.449437738842072 7.324846059810432 2.069517084639756 88
nan nan nan 0
nan nan nan 0
2.533589455070416 7.320701787666554 2.075728741722216 57
2.567424462691642 7.335517442753745 2.082458036894882 77
2.595582963927028 7.329700177479454 2.083493313075292 77
2.625082058905645 7.335603773490044 2.087634417796933 77
2.654581009805101 7.333199083625108 2.089704970157753 77
2.680922127638382 7.333895409372063 2.092293160608778 71
2.713143486593048 7.338515912110992 2.096434265330418 70
2.738815798590894 7.333097949967892 2.097469541510828 70
2.771817459983005 7.339275757510681 2.102128284322673 66
2.798797126223565 7.333165325015841 2.103163560503083 66
2.825767890618635 7.326955922076272 2.104198836683494 66
2.849473024032823 7.319842624409723 2.104716474773698 66
2.881234238810943 7.321933348001697 2.108339941405134 68
2.913911695210507 7.329783311112038 2.113516322307185 78
2.941639455171457 7.324945285820283 2.115069236577800 70
2.968642733569054 7.318212760743706 2.116104512758210 70
3.000574571705486 7.319795457048450 2.119727979389645 77
nan nan nan 0
nan nan nan 0
3.093592587113632 7.327126682775924 2.131116017374156 57
3.126726454591085 7.334054299446354 2.136292398276206 73
2.851360767000042 6.623967719016196 1.932342990735420 28
2.882165506120401 6.631691841442821 1.937519371637470 9
nan nan nan 0
3.258048941753967 7.359139479500490 2.156480283794203 73
3.292387684135733 7.367123022029784 2.162174302786458 98
3.310625974302638 7.335637153232131 2.156480283794203 71
3.337656209296996 7.333991979274424 2.159068474245228 66
3.370160726775933 7.333997289648002 2.162691940876663 71
3.399337374711119 7.333297309865229 2.165797769417894 70
3.429467938855498 7.327787701331867 2.167868321778713 64
3.457047611726030 7.323362826786435 2.169938874139534 71
3.495500906164760 7.335058239376624 2.177185807402405 71
3.529847857799660 7.344320636578186 2.183397464484865 70
3.562206225780466 7.345860454245291 2.187538569206505 70
3.589092448207930 7.339213709600284 2.189091483477120 66
3.623663271894675 7.341600672644809 2.193750226288966 64
3.654434659824990 7.339282988918311 2.196856054830196 50
3.683499729799910 7.333387178974761 2.198926607191016 15
nan nan nan 0
nan nan nan 0
nan nan nan 0
nan nan nan 0
2.620458783465400 4.997594689306180 1.512020861488926 105
nan nan nan 0
nan nan nan 0
2.679968653521923 4.983491236909763 1.516161966210567 100
nan nan nan 0
2.723035892744090 4.979915250065605 1.520820709022412 100
nan nan nan 0
2.764306125823157 4.972603100796566 1.524444175653847 12
2.791167289957668 4.981948039146488 1.530138194646103 3
2.799904206997922 4.954865477311951 1.524961813744052 1
2.830747539705036 4.972907311806064 1.533244023187333 1
4.137813984921578 7.207518370439954 2.226879064062089 3
2.856583365955734 4.935803557066033 1.528067642285282 3
2.901921176699776 4.972017445238507 1.542561508811024 1
4.158944363629083 7.074596776949574 2.198926607191016 3
2.919075289154213 4.926070491556214 1.534279299367743 3
2.960028025588191 4.955655467546519 1.546702613532664 1
2.940296522873993 4.881887801910574 1.527032366104872 24
2.936582701264407 4.841243493805684 1.517197242390977 5
2.934318283383082 4.799647034416292 1.507362118677081 19
2.964054542448996 4.808594295084633 1.513573775759541 35
2.978599854931082 4.792775794738038 1.512020861488926 52
3.000627823088496 4.792696504105540 1.515126690030157 49
3.019400903240570 4.785460800981086 1.516161966210567 54
3.048325512688317 4.792292345944252 1.521855985202822 52
3.074417924009660 4.796260127816509 1.526514728014667 52
3.099526864357363 4.798481211679100 1.530655832736308 50
3.115203948312874 4.786013525440672 1.530138194646103 42
3.142709245645348 4.793428210465446 1.535832213638358 35
3.170908283998879 4.797994285742729 1.541008594540408 33
4.140562322399928 6.224973525582293 2.003259409093511 24
4.156895373093627 6.200128265718113 2.000153580552280 41
4.151477644784056 6.145559643742346 1.987212628297154 56
4.155491016510211 6.103156009853747 1.978412780763669 50
4.148393338049999 6.049511484753267 1.965471828508543 54
4.154062384831903 6.010427938026170 1.957707257155467 52
4.154105300923137 5.968079292957882 1.948389771531776 52
4.159309825616690 5.929090959578867 1.940625200178701 56
4.154425492952138 5.880553442960816 1.929237162194190 58
4.150283088840254 5.831389630204346 1.917849124209679 56
4.155979422001643 5.796456852505712 1.911119829037013 60
4.157962471388121 5.754565732920288 1.902319981503528 54
4.154290342250317 5.709503637959133 1.891967219699427 56
4.155922110347339 5.670037583196643 1.883685010256146 58
4.158476677856767 5.632184143529672 1.875920438903070 60
4.157181483853188 5.587456282311614 1.866085315189175 58
4.161787646407296 5.555086818591800 1.859873658106714 61
4.154388197062287 5.505058859403245 1.847967982031998 56
4.156043081847336 5.467454371931655 1.840203410678922 58
4.158660703048146 5.431439561370598 1.832956477416052 58
4.165559494278261 5.399335700589774 1.827262458423797 63
4.167786035065753 5.363406292094986 1.820015525160926 63
4.155788087151617 5.311518696441351 1.807074572905800 61
4.154895902367690 5.270460326439743 1.798274725372314 60
4.154908942299619 5.238433034098023 1.791545430199649 58
4.166844652344730 5.214114443934464 1.788439601658418 58
4.172906984917104 5.184488362483581 1.783263220756368 61
4.159027416447582 5.128646067729928 1.769286992320832 65
4.157685193639701 5.092379462590854 1.761522420967756 61
4.162822053300529 5.060695127684628 1.755828401975501 60
4.161453133647878 5.026759061634747 1.748581468712630 60
4.163763313709442 4.992186502219390 1.741852173539965 58
4.161660804827376 4.956159756656891 1.734087602186889 60
4.158976580865242 4.918000970535848 1.725805392743608 60
4.164445604093994 4.888019293553510 1.720629011841558 60
4.168492666068408 4.856597869212034 1.714934992849303 61
4.167312835560446 4.824472719893671 1.708205697676637 65
4.157501730304922 4.779288257618884 1.697335297782331 58
4.159711757589636 4.746583500333324 1.691123640699870 56
4.161738102541306 4.713926980057956 1.684911983617410 56
4.169646985971777 4.691436461162440 1.681806155076180 56
4.170537003523452 4.659579399531122 1.675594497993719 58
4.163007605651647 4.617002207307836 1.665759374279824 60
4.129749382021889 4.548094175382623 1.646089126852032 31
3.805347955320340 4.161549410968130 1.510985585308516 33
3.801530660490180 4.128345274283275 1.503738652045646 29
3.813886522850179 4.114299475490882 1.503221013955440 31
3.819711027189734 4.090409620664534 1.499597547324005 33
3.827961589675096 4.072090245479420 1.497526994963185 33
3.844189165589374 4.059435420910797 1.498044633053390 31
3.852925074066136 4.043142949395561 1.496491718782775 29
3.858353119663700 4.019238682350178 1.492868252151340 29
3.864947871296439 3.999475876894325 1.490280061700314 29
3.871495455849943 3.976977713737021 1.487174233159084 28
3.894127194893374 3.973775988690248 1.490797699790519 33
3.900522602430366 3.951227698342458 1.487691871249289 28
3.908156990559259 3.932790133481176 1.485621318888469 29
3.913662167254452 3.910930868921320 1.482515490347239 29
3.922484166308942 3.891118187699524 1.480444937986419 28
3.942225382213751 3.882137408272680 1.482515490347239 29
3.944736913734472 3.860275257492711 1.478892023715804 31
3.974812976175598 3.862638070244938 1.485103680798264 54
3.982711378758356 3.843373884162946 1.483033128437444 54
4.014906734086860 3.846123741870940 1.489762423610109 59
4.045159781929348 3.850807561314364 1.496491718782775 57
4.069807893286798 3.847280707299851 1.500632823504415 57
4.109911479598765 3.855416150537607 1.509950309128106 57
4.128998580514004 3.846313512512420 1.512020861488926 57
4.158745697224981 3.848345130749723 1.518232518571387 77
4.172153592099950 3.833804953760672 1.518232518571387 59
4.178375446626987 3.812707292418512 1.515644328120361 59
4.183730829032303 3.789585681508678 1.512538499579131 17
nan nan nan 0
nan nan nan 0
4.210318578352268 3.736781873212415 1.508397394857491 73
4.184848461028928 3.686844821195198 1.494421166421955 56
4.173791052448859 3.652591306325987 1.486138956978674 54
4.166732424497729 3.619532467713070 1.478892023715804 52
4.167011337054189 3.595598732309786 1.474750918994163 52
4.174292923052367 3.575274972682187 1.472680366633343 54
4.176446218448832 3.551921284173009 1.469056900001908 56
4.179963438424187 3.529842646566606 1.465951071460677 56
4.163523917920159 3.492373252048565 1.456115947746782 54
4.162934367964916 3.465965007073645 1.451457204934936 56
4.166961371988553 3.445985418312691 1.448869014483911 54
4.175978678068366 3.428967125323382 1.447833738303501 57
4.174446947689091 3.403382819095862 1.443174995491656 56
4.164366605398464 3.369831403811825 1.435410424138580 52
4.161966482660390 3.345111152651318 1.430751681326735 52
4.169087767672216 3.326947860981769 1.429198767056119 52
4.172167248548082 3.304448423089805 1.426092938514889 52
4.177602204382379 3.285088136667198 1.424022386154069 54
4.178384705895629 3.262163723505679 1.420398919522634 59
4.174477571331304 3.235723438835930 1.415222538620583 59
4.175999913689100 3.214791924523779 1.412116710079353 61
4.184684464364917 3.197118878085176 1.411081433898943 61
4.179873669120836 3.171547113342025 1.405905052996893 61
4.172950882197979 3.142260863167894 1.399693395914432 61
4.176069007127209 3.125235676695229 1.397622843553612 61
4.175088124520384 3.100694082948315 1.393481738831972 59
4.173446647343019 3.076930237134281 1.389340634110331 56
4.184696128192749 3.061613123354831 1.389340634110331 61
4.172415966508499 3.032550412524535 1.382093700847461 59
4.174101664218146 3.010457065763212 1.378987872306231 59
4.179349967724588 2.993224145242370 1.377434958035615 57
4.183474765240931 2.974139815172643 1.375364405674795 57
4.194347433003667 2.958786636927099 1.375364405674795 57
4.181423651523634 2.926776885866425 1.367599834321719 61
4.178415494890316 2.904074421349745 1.363458729600079 61
4.182166440626625 2.885083377264789 1.361388177239259 61
4.182147888745443 2.864648686641593 1.358282348698029 61
4.191021463398959 2.848215245369861 1.357764710607824 61
4.183320703188621 2.821685442983974 1.352070691615568 63
4.185118043651021 2.801692334957096 1.349482501164543 64
4.184732417062478 2.781382471542202 1.346376672623313 61
4.184740059341933 2.760375712684395 1.343270844082083 66
4.193212729482028 2.743961521798076 1.342753205991877 66
4.178462589324696 2.713525333399190 1.334988634638802 61
4.179789853835642 2.693690745817128 1.332400444187777 59
4.181496275680993 2.673150251347195 1.329812253736752 57
4.182182188582076 2.654093522719605 1.327224063285726 59
4.191881836725100 2.638747231693390 1.327224063285726 59
4.184226158329214 2.614594687797231 1.322047682383676 61
4.185570801010977 2.594152601308018 1.319459491932651 61
4.186669145171593 2.577671012903308 1.317388939571831 61
4.192791145028860 2.560295187482018 1.316353663391421 66
4.198842060109816 2.542909140043620 1.315318387211010 64
4.194885335638063 2.519545029312340 1.311177282489370 64
4.194047312042770 2.502138631759855 1.308589092038345 66
4.191118476466426 2.480595620557309 1.304965625406910 66
4.191422301776056 2.461059955606942 1.302377434955884 66
4.198744903388453 2.444709043132607 1.301859796865679 66
4.186756420590290 2.419173944246729 1.295648139783219 66
4.191823288605812 2.402623368423791 1.294612863602809 66
4.188428657051287 2.381292876086235 1.290989396971373 58
4.192079727995915 2.363079582072089 1.289436482700758 60
4.194834852193931 2.346335968480806 1.287883568430143 58
4.194552994315988 2.326993117570462 1.285295377979118 60
4.189913907319796 2.303424662836245 1.281154273257478 60
4.194536567765602 2.286935577361017 1.280118997077067 56
4.196092388223792 2.267872316169660 1.278048444716247 56
4.202280469067887 2.252298802870524 1.277530806626042 58
4.191890596307192 2.230745042341664 1.272354425723992 56
4.188077475910160 2.209056995465275 1.268730959092557 56
4.197091646744545 2.196052300692483 1.269248597182762 56
4.198252500035241 2.177097092154847 1.267178044821941 56
4.203731018596240 2.162279569646352 1.266660406731737 56
4.203022237114084 2.142470888098996 1.264072216280711 58
4.196311503067156 2.121548341035810 1.259931111559071 61
4.202331958298791 2.105288534882031 1.259413473468866 61
4.195449582401172 2.084464938968648 1.255272368747226 61
4.211727454173926 2.073339978240687 1.257860559198251 58
4.201219329349283 2.050887246083591 1.252684178296200 65
4.182267835973639 2.023588624308052 1.244919606943125 60
4.177462140965689 2.002401046954797 1.241296140311690 56
4.200479236488745 1.994534184477055 1.245954883123535 63
4.193087470139021 1.974011146760412 1.241813778401895 60
4.182445412472958 1.951195100134461 1.236637397499844 55
4.197659854392941 1.941369539522463 1.239225587950869 65
4.187183445639762 1.917926314315156 1.234049207048819 58
4.184725360668266 1.900037215524942 1.231461016597794 55
4.205426667224842 1.891758426539995 1.235602121319434 61
4.196775970279914 1.868525047782183 1.230943378507589 58
4.192667373608680 1.849186644222238 1.227837549966358 58
4.200546586632652 1.836046814627368 1.228355188056564 61
4.199838667452282 1.818302823962281 1.226284635695743 56
4.204069917403515 1.803604002314232 1.225766997605538 58
4.199983336298655 1.783652331727210 1.222661169064308 58
4.189541514395536 1.763702919654974 1.218002426252463 56
4.199544160262921 1.749821684072062 1.219037702432873 60
4.199966587314855 1.733674553090143 1.217484788162257 58
4.206292611837844 1.718269261260258 1.217484788162257 58
4.195850247955494 1.697789645524880 1.212826045350412 61
4.205631668046606 1.683835789147793 1.213861321530822 61
4.200417438967176 1.665607539192819 1.210755492989592 61
4.206493982384501 1.650201052101990 1.210755492989592 63
4.208912038750636 1.633374558116759 1.209720216809182 61
4.203767429646628 1.614516991383785 1.206614388267952 63
4.190762980436761 1.594432926233477 1.201438007365901 61
4.196578720703890 1.579062302568191 1.201438007365901 61
4.191202382214904 1.560359759962246 1.198332178824671 58
4.192997927306243 1.544384831744993 1.197296902644261 60
4.187206234228316 1.526501762387511 1.194191074103031 61
4.190955604691415 1.510489605281334 1.193673436012826 60
4.192302374064982 1.495285599516250 1.192638159832416 61
4.190209033859502 1.478072063399341 1.190567607471596 60
4.195853520112928 1.461971959305415 1.190567607471596 60
4.184492765622608 1.441653376916061 1.185908864659750 60
4.187421884229776 1.427145964309716 1.185391226569545 60
4.186885843794298 1.410669976063904 1.183838312298930 63
4.186285868830338 1.394215141949210 1.182285398028315 61
4.187697604827068 1.377654862496394 1.181250121847905 58
4.184657013558642 1.362100297987901 1.179179569487085 58
4.200656252098096 1.350300814381082 1.182285398028315 66
4.194296775990616 1.332120902102725 1.179179569487085 61
4.189934321394746 1.313848967414588 1.176591379036059 60
4.201421843254628 1.302968359745801 1.178661931396880 58
4.191391307675542 1.283036918271651 1.174520826675239 58
4.186377432529833 1.266334035141397 1.171932636224214 58
4.190990659702704 1.250981689089515 1.171932636224214 56
4.215715547326337 1.242351755725676 1.177626655216469 63
4.199621957016148 1.221692806846478 1.171932636224214 56
4.198079937620558 1.206159253078796 1.170379721953599 61
4.198755177193704 1.189711111626875 1.169344445773189 61
4.200816900305776 1.175260508885998 1.168826807682984 58
4.212342613972580 1.162645721943320 1.170897360043804 61
4.210783332137343 1.146412359028693 1.169344445773189 61
4.201895905164893 1.127466807026843 1.165720979141754 58
4.201876614945202 1.112537696482278 1.164685702961343 58
4.200126850963710 1.096399813793396 1.163132788690728 60
4.207859128055486 1.081960385214875 1.164168064871138 61
4.211610238887574 1.067265624121542 1.164168064871138 60
4.204064207680063 1.049749789746104 1.161062236329908 61
4.205826979275696 1.034607005530759 1.160544598239703 61
4.207357288320509 1.020199049275492 1.160026960149498 61
4.211068244754943 1.004771461449239 1.160026960149498 60
4.208735296787194 0.989475157142728 1.158474045878883 61
4.206687075439016 0.972737037730435 1.156921131608268 63
4.200304531627156 0.957369992506374 1.154332941157242 60
4.203785255428802 0.941968676336250 1.154332941157242 58
4.203112830518869 0.927190934967899 1.153297664976833 58
4.215922966150207 0.913825712435940 1.155885855427858 61
4.211372720077668 0.898228288907640 1.153815303067038 63
4.195728409630929 0.878826341835274 1.148638922164987 60
4.204447095467507 0.865343492962038 1.150191836435602 61
4.203655016433980 0.849896289456479 1.149156560255192 61
4.202806371800246 0.834465168961371 1.148121284074782 65
4.198251692859288 0.817578402198844 1.146050731713962 65
4.195107329209253 0.803295239798059 1.144497817443347 60
4.188392611229780 0.786863226982962 1.141909626992321 60
4.208212591545952 0.775388778432287 1.146568369804167 61
4.199619424574782 0.757901118525819 1.143462541262937 60
4.198305088671900 0.743296930188525 1.142427265082526 61
4.191356942372202 0.726986840026384 1.139839074631501 60
4.207450265513113 0.713147726605190 1.143462541262937 60
4.196573376759213 0.696243332046334 1.139839074631501 60
4.200765967506754 0.682633030249472 1.140356712721706 60
4.195491573533531 0.666752632945682 1.138286160360886 60
4.186226113685793 0.651054943414889 1.135180331819656 58
4.200044106048307 0.637446565901599 1.138286160360886 60
4.192580212241904 0.622097488389280 1.135697969909861 56
4.212039759594465 0.609215586919722 1.140356712721706 63
4.208298243544559 0.594434018216615 1.138803798451091 66
4.193224124000301 0.576637181138158 1.134145055639246 58
4.197027968572750 0.562985614804429 1.134662693729451 58
4.195231961312722 0.547099322757118 1.133627417549041 58
4.218197540796267 0.535126313180174 1.139321436541296 61
4.206708956591624 0.518009532416565 1.135697969909861 61
4.204479365795780 0.504331075838229 1.134662693729451 65
4.190863047956475 0.487864581682481 1.130521589007811 58
4.202138787939065 0.474316175765448 1.133109779458836 60
4.200008133322581 0.458492092681076 1.132074503278426 55
4.211188795365979 0.444843232209576 1.134662693729451 61
4.210794072562754 0.429944497859228 1.134145055639246 63
4.200661669801295 0.414839490197987 1.131039227098016 56
4.221385743218479 0.401268612140056 1.136215608000066 63
4.211150517972225 0.386209195484794 1.133109779458836 58
4.193229160286846 0.369810029258556 1.127933398556785 60
4.200331391107463 0.354926575523461 1.129486312827400 58
4.215023558964895 0.341354105095664 1.133109779458836 63
4.206559027085961 0.325892756023925 1.130521589007811 58
4.205744388023549 0.311064645241187 1.130003950917605 52
4.532424445402513 0.320117849098147 1.217484788162257 37
4.533567292554059 0.303503532891406 1.217484788162257 35
4.538404728306578 0.288713309147382 1.218520064342668 34
4.554859559957587 0.273001931724446 1.222661169064308 35
4.623246551781489 0.261717461904224 1.240778502221485 78
4.587520873413774 0.242830465348264 1.230943378507589 66
4.570935594104709 0.226754904694906 1.226284635695743 58
4.577525440675547 0.210266000249080 1.227837549966358 58
4.593638340214529 0.195743183033938 1.231978654687999 61
4.596255308886711 0.178980512399292 1.232496292778204 63
4.589101048755523 0.163462722445504 1.230425740417384 63
4.570335126099122 0.146822485171005 1.225249359515333 60
4.580475089791834 0.131144586960735 1.227837549966358 58
4.582856242563369 0.114403636185609 1.228355188056564 58
4.590936017593904 0.099372932317404 1.230425740417384 60
4.577734190411720 0.083101522062961 1.226802273785948 56
4.585722955902412 0.067235027089348 1.228872826146769 61
4.597528992406098 0.050554508983088 1.231978654687999 65
4.580272648875662 0.036773575755235 1.227319911876153 56
4.601623257405008 0.020881647295078 1.233013930868409 65
4.578486673251135 0.003995484374591 1.226802273785948 56
4.588131951547859 -0.012011728802947 1.229390464236974 63
4.580324761965904 -0.029578857893781 1.227319911876153 60
4.585988875744339 -0.045624650214874 1.228872826146769 58
4.603197498958441 -0.061062705191105 1.233531568958614 63
4.589421750492844 -0.077704928628540 1.229908102327179 65
4.577582178681896 -0.091091044826203 1.226802273785948 58
4.579148882007434 -0.107913624359372 1.227319911876153 58
4.584559311459031 -0.123253790498918 1.228872826146769 56
4.597593424470591 -0.140469183640999 1.232496292778204 63
4.577794889093758 -0.155060592348217 1.227319911876153 60
4.582987290542618 -0.172055432587570 1.228872826146769 60
4.592042739086962 -0.187646601351149 1.231461016597794 60
4.579744503927727 -0.203960316528269 1.228355188056564 60
4.588691181422970 -0.219607924354734 1.230943378507589 58
4.593684577643350 -0.235921362766553 1.232496292778204 63
4.575472510304752 -0.251002506637173 1.227837549966358 58
4.591878762146406 -0.268786759414926 1.232496292778204 63
4.579393192096616 -0.283296803057083 1.229390464236974 60
4.584159614777527 -0.299658180517534 1.230943378507589 60
4.581158398434697 -0.315525317161047 1.230425740417384 60
4.572264024154578 -0.331754766953410 1.228355188056564 60
4.578843994466355 -0.347499887277303 1.230425740417384 58
4.575677307495918 -0.363328002632422 1.229908102327179 58
4.583940993421238 -0.380896123792704 1.232496292778204 60
4.572960258024254 -0.396061281067352 1.229908102327179 58
4.573473939096549 -0.412194888036024 1.230425740417384 58
4.577777555101520 -0.428697154646384 1.231978654687999 61
4.582099258101127 -0.444434761569798 1.233531568958614 58
4.584283809347292 -0.461613106659426 1.234566845139024 60
4.573120443284862 -0.475812994361455 1.231978654687999 60
4.575187251761078 -0.492985048056578 1.233013930868409 61
4.579376140037626 -0.507994953653651 1.234566845139024 61
4.581322047248101 -0.525215857709371 1.235602121319434 60
4.590877028681986 -0.543366103536147 1.238707949860664 61
4.575431345585004 -0.558550195707237 1.235084483229229 61
4.573654032449832 -0.572921557232559 1.235084483229229 61
4.581103339498266 -0.590916699428106 1.237672673680254 63
4.582948896423225 -0.606611925142548 1.238707949860664 63
4.592289012915917 -0.624166773885763 1.241813778401895 63
4.576688965934641 -0.638325043320316 1.238190311770459 61
4.576230987531885 -0.655369028643363 1.238707949860664 61
4.577855387591987 -0.671101172536812 1.239743226041074 61
4.592678806515401 -0.689658698269840 1.244401968852920 66
4.590243468233316 -0.705685937408672 1.244401968852920 66
4.572359525374595 -0.720100937105723 1.240260864131279 66
4.579483060348863 -0.736793816139696 1.242849054582305 69
4.586414472339222 -0.754342333825382 1.245437245033330 66
4.591373921827199 -0.771628022693525 1.247507797394150 66
4.590556470328877 -0.787977033361861 1.248025435484355 69
4.583831967232217 -0.804129366942379 1.246990159303945 69
4.584800341101582 -0.820805911661764 1.248025435484355 69
4.591555633448547 -0.837738875528452 1.250613625935380 66
4.590353521057051 -0.854915850769465 1.251131264025585 71
4.591289301183267 -0.870853321994364 1.252166540205995 69
4.586169946344104 -0.887308429511666 1.251648902115790 66
4.579568723751191 -0.900966072094091 1.250613625935380 65
4.593282993795099 -0.921163730925437 1.255272368747226 71
4.592095916591348 -0.936776681793647 1.255790006837431 66
4.586740174945986 -0.953208187016981 1.255272368747226 63
4.587334253958598 -0.969211815731988 1.256307644927636 69
4.585639751826745 -0.986424996861631 1.256825283017841 66
4.595379084083475 -1.005315882235878 1.260448749649276 69
4.586184580096752 -1.020092286486391 1.258895835378661 66
4.595967173466762 -1.038274892534670 1.262519302010096 69
4.578951288233702 -1.052084775885090 1.258895835378661 66
4.584844010577465 -1.069457549998347 1.261484025829686 61
4.579203170371221 -1.085009720441897 1.260966387739481 65
4.586657309862028 -1.103699304120648 1.264072216280711 65
4.593840655370239 -1.123255908414808 1.267178044821941 66
4.584465435089345 -1.137088256639740 1.265625130551326 63
4.584215130581622 -1.154027317945599 1.266660406731737 63
4.583697939853749 -1.171778499421458 1.267695682912146 63
4.587059662036060 -1.189711462785136 1.269766235272967 63
4.582878848097584 -1.205716040956775 1.269766235272967 60
4.582375289185215 -1.222702019116893 1.270801511453377 61
4.582025239996222 -1.238899465517254 1.271836787633787 61
4.581179720896174 -1.256707234804922 1.272872063814197 61
4.580709781672144 -1.272926543521271 1.273907339994607 60
4.583451153850207 -1.291803366805259 1.275977892355427 58
4.577284513974363 -1.306465314472668 1.275460254265222 61
4.574321042821280 -1.323770152036462 1.275977892355427 58
4.575467863495629 -1.340561400399158 1.277530806626042 60
4.579783297759715 -1.360072166792467 1.280118997077067 61
4.580798194860838 -1.376920117371397 1.281671911347683 61
4.579416820785509 -1.394826101193450 1.282707187528093 61
4.578212176300784 -1.411941413672274 1.283742463708503 66
4.578787853111535 -1.429641069479950 1.285295377979118 53
4.548231923302648 -1.436670645906389 1.278048444716247 29
nan nan nan 0
4.606098353090241 -1.490393031056240 1.297201054053834 70
4.580672498925066 -1.499849671126424 1.291507035061578 61
4.593747452707975 -1.521905535670294 1.296683415963629 68
4.593633311446742 -1.540575032520898 1.298236330234244 64
4.597919058678676 -1.558098808235001 1.300824520685269 66
4.597934700835294 -1.576018243477018 1.302377434955884 71
4.595499464044620 -1.594928205410499 1.303412711136295 71
4.606309663301644 -1.616717772878092 1.308071453948140 68
4.600638201904938 -1.632786944625326 1.308071453948140 68
4.609457293973273 -1.654056122356768 1.312212558669780 68
4.593340580044933 -1.664579792273296 1.309106730128550 68
4.594464109205290 -1.684063443908282 1.311177282489370 68
4.597912432775465 -1.702644279536542 1.313765472940395 64
4.604305146839101 -1.724227507228896 1.317388939571831 64
4.602175887592408 -1.740853436387200 1.318424215752241 64
4.593960045493949 -1.757019451503134 1.317906577662036 66
4.589910384832359 -1.772940000825229 1.318424215752241 66
4.599577099357362 -1.796075163189063 1.323082958564086 64
4.600784535283788 -1.814152648587470 1.325153510924906 66
4.597693574938852 -1.832433652802231 1.326188787105316 61
4.596968297396785 -1.849833626885471 1.327741701375931 66
4.603010801098303 -1.870960810489915 1.331365168007367 70
4.594664774049559 -1.886283241250241 1.330847529917162 63
4.596642393219840 -1.906811969885955 1.333435720368187 66
4.592075849352624 -1.922790636353827 1.333953358458392 61
4.601350060327415 -1.945579416178577 1.338612101270237 66
4.601637463791564 -1.964663501488927 1.340682653631057 70
4.592631801961995 -1.980751085504612 1.340165015540852 63
4.596666272923080 -2.000595565028186 1.343270844082083 64
4.607341418074138 -2.024399945349531 1.348447224984133 66
4.594593295840449 -2.038922303960000 1.346894310713518 64
4.592737277798890 -2.057317277074451 1.348447224984133 64
4.585527919806931 -2.073336388072065 1.348447224984133 63
4.606382536211924 -2.102162974614498 1.356729434427414 64
4.615179575304514 -2.124697559316435 1.361388177239259 66
4.602105625126415 -2.139155878557431 1.359835262968644 63
4.600234039917755 -2.156865551872702 1.361388177239259 61
4.614997404640951 -2.184456348119252 1.368117472411925 64
4.616444963796763 -2.203909681005769 1.370705662862950 63
4.615297456206486 -2.224169699831792 1.372776215223770 61
4.608287256949710 -2.238658084735321 1.372776215223770 59
4.612193126884768 -2.261486784419886 1.376399681855205 57
4.604270965781359 -2.277572565134137 1.376399681855205 54
4.606262892144303 -2.299610122442557 1.379505510396436 54
4.605514014945539 -2.318346876754293 1.381576062757256 54
4.600838446431789 -2.336158272736701 1.382611338937666 54
4.606823013092210 -2.358445120423403 1.386752443659306 57
4.605013405575237 -2.378860697938836 1.388822996020126 57
4.612520257961223 -2.402149352858635 1.393481738831972 61
4.612658552778494 -2.422726940460104 1.396069929282997 57
4.604173555660676 -2.438813363483704 1.396069929282997 57
4.603723035074961 -2.460224721528967 1.398658119734022 61
4.604043281844170 -2.480058514853702 1.401246310185047 57
4.607241296340027 -2.502569189350552 1.404869776816483 61
4.623008634941346 -2.534170349370640 1.412634348169558 57
4.607371450618303 -2.546554160818308 1.410563795808738 57
4.605204272633628 -2.566383020067064 1.412634348169558 57
4.609691573363675 -2.590012917833590 1.416775452891199 57
4.620025625654210 -2.614949295848398 1.422469471883454 56
4.622154456653202 -2.638569140568221 1.426092938514889 57
4.606681040635078 -2.650029062781272 1.424022386154069 54
4.611976309571385 -2.675620442381354 1.428681128965915 56
4.606413838200806 -2.692849522733789 1.429716405146324 52
4.609826689804576 -2.717563344498270 1.433857509867965 56
4.612416122672331 -2.739741220172933 1.437480976499400 57
4.618916565429481 -2.766554808916064 1.442657357401451 68
4.603100915518767 -2.777863858919857 1.440586805040630 61
4.578035581954871 -2.785678518863764 1.435928062228785 42
4.547361792022866 -2.787718711903312 1.429198767056119 35
4.521168497186136 -2.793420781726901 1.424022386154069 33
4.478591911309470 -2.788762572386472 1.413669624349968 36
4.438889705779925 -2.786669921317547 1.404352138726278 35
3.781426479216614 -2.391442430576704 1.198849816914876 27
3.764910119711164 -2.399436165341044 1.196261626463851 30
3.728878226467861 -2.394816422140419 1.187461778930365 29
3.700615883686504 -2.395868575494380 1.181250121847905 29
3.667960497310874 -2.392938246789250 1.173485550494829 29
3.649899524538631 -2.399360074522475 1.170379721953599 27
3.628617387180334 -2.403551402639324 1.166238617231959 27
3.599316430299007 -2.402261302738987 1.159509322059293 29
3.566862779287667 -2.398640019459556 1.151744750706217 29
3.534478559082527 -2.394821635244066 1.143980179353142 29
3.508964808006990 -2.394551021235366 1.138286160360886 29
3.490614525798643 -2.400827325430411 1.135180331819656 30
3.466753219351002 -2.401389012015768 1.130003950917605 27
3.429415938047433 -2.394173797027542 1.120686465293915 27
3.408814915664798 -2.396644180625427 1.116545360572274 27
3.387397743419199 -2.400186930104385 1.112404255850634 29
3.369984484137905 -2.404674110111111 1.109298427309404 30
3.348600826993032 -2.407986668109323 1.105157322587764 30
3.309303592705946 -2.396416638439739 1.094804560783663 30
3.281771828574854 -2.394864329181061 1.088592903701202 30
3.261358253974301 -2.396582282110026 1.084451798979562 30
3.245209093211271 -2.402205044096047 1.081863608528537 29
3.222865671153140 -2.403125161738128 1.077204865716691 29
3.189324655434242 -2.396354021663880 1.068922656273411 27
3.165954418913894 -2.395261254851577 1.063746275371360 29
3.154501043921044 -2.403956009601593 1.062710999190950 29
3.133830967725816 -2.405542193403788 1.058569894469310 29
3.109712025326118 -2.405192970453007 1.053393513567259 29
3.078856226003421 -2.397687313809709 1.045628942214184 30
3.056787675070443 -2.397689336318134 1.040970199402338 30
3.035853944552969 -2.399294116144535 1.036829094680698 30
3.018391571807537 -2.402657805074035 1.033723266139468 27
2.997928309449492 -2.403512101964854 1.029582161417828 27
2.963968767234130 -2.393330026244086 1.020782313884342 27
2.950019926495057 -2.398271206560206 1.018711761523522 27
2.930748387426352 -2.400498623863575 1.015088294892086 27
2.917229891431705 -2.404778745301576 1.013017742531266 30
2.900965590226165 -2.409283454599454 1.010429552080241 28
2.868183785914238 -2.397323446093215 1.001629704546755 28
2.844600744479063 -2.395376249841887 0.996453323644705 30
2.833275266555190 -2.402792162195680 0.995418047464295 30
2.812699382284754 -2.403121346849081 0.991276942742654 28
2.800741417479482 -2.408167323895933 0.989724028472039 30
2.774373869685002 -2.403238033681374 0.983512371389579 28
2.748498828789698 -2.397668346948021 0.977300714307118 28
2.732856005296600 -2.400872664293630 0.974712523856093 30
2.711855545790606 -2.398403460772707 0.970053781044248 26
2.700161954242216 -2.405756545890359 0.969018504863838 26
2.670597461994218 -2.395348841254678 0.961253933510762 24
2.659352637414644 -2.402066543622485 0.960218657330352 27
2.641957615742184 -2.403996462058370 0.957112828789122 26
2.626008369573241 -2.407136630467164 0.954524638338097 28
2.609913332778254 -2.407515450366005 0.951418809796866 28
2.583093516876690 -2.399518619229429 0.944689514624201 27
2.568639230547568 -2.403690078873212 0.942618962263380 28
2.551797443315295 -2.404692263025169 0.939513133722150 28
2.530356913585308 -2.402058525029471 0.934854390910305 30
2.521956748795233 -2.410876484808357 0.934854390910305 30
2.493068159857188 -2.399133096928896 0.927089819557229 27
2.475935679152704 -2.400186679624064 0.923983991015999 28
2.469765912128600 -2.409302197124213 0.924501629106204 37
2.443006166430771 -2.400735473526272 0.917772333933539 27
2.430911419386677 -2.404747730246977 0.916219419662923 27
2.412502397985591 -2.404095839650392 0.912595953031488 27
2.394024881436067 -2.400719612042889 0.908454848309848 27
2.385209723988652 -2.409478026704604 0.908454848309848 27
2.366884155512648 -2.408558814958255 0.904831381678412 26
2.353993468074889 -2.413069158266745 0.903278467407797 26
2.331190096179132 -2.405601565812364 0.897584448415542 27
2.313401930986157 -2.403980297081721 0.893960981784107 26
2.300992332741017 -2.407850935108710 0.892408067513491 27
2.285503890926395 -2.409260581785384 0.889819877062466 26
2.274369251203114 -2.411814734177218 0.888266962791851 27
2.251411355898030 -2.404227922932081 0.882572943799596 28
2.233796498440799 -2.402169232202312 0.878949477168160 27
2.219735697487315 -2.404662301556963 0.876878924807340 27
2.205686699790985 -2.407084646177327 0.874808372446520 27
2.199871289238920 -2.417626979900365 0.875843648626930 30
2.172866663179801 -2.405603086566993 0.868596715364060 27
2.156716888841046 -2.404544403044874 0.865490886822829 27
2.147025448465122 -2.410615482116564 0.864973248732624 26
2.133478425351176 -2.412306934275848 0.862902696371804 26
2.117817044817695 -2.410660554858021 0.859796867830574 26
2.101349123095996 -2.409670584554045 0.856691039289344 26
2.087863388735085 -2.408596021250951 0.854102848838319 27
2.073981367306902 -2.410374712326504 0.852032296477498 27
2.061790273040752 -2.413193255923682 0.850479382206883 26
2.049183123245406 -2.416313799870260 0.848926467936268 27
2.028712978933401 -2.408320875576367 0.843750087034218 30
2.014915673068630 -2.409812107060293 0.841679534673398 30
2.001976313196884 -2.410535956632601 0.839608982312577 27
1.988212575318320 -2.411894718618547 0.837538429951757 24
1.983073824915345 -2.421117994712234 0.838573706132167 27
1.957545929518812 -2.407042527778655 0.831326772869297 27
1.941430166048736 -2.405181693288951 0.828220944328066 27
1.931393818188257 -2.410773559649910 0.827703306237861 29
1.910995046856934 -2.399869717832665 0.822009287245606 27
1.910993099365124 -2.417133825402369 0.825632753877041 29
1.879880550773953 -2.394916980073007 0.815797630163145 28
1.875839074125238 -2.407886916779921 0.817868182523966 27
1.854421508914383 -2.397610893236697 0.812174163531710 30
1.855453560835260 -2.416327268066190 0.816315268253350 28
1.833704389204138 -2.406209758782443 0.810621249261095 27
1.819466091884823 -2.404892870036296 0.808033058810070 25
1.809900171956578 -2.409684670833752 0.807515420719865 27
1.796858602433700 -2.409792880497013 0.805444868359045 27
1.783529548445161 -2.407664325557344 0.802856677908019 30
1.775837262969929 -2.415741650889402 0.803374315998224 31
1.758704154059140 -2.409134693720474 0.799233211276584 31
1.738529115285703 -2.399919637287769 0.794056830374534 30
1.730141240693069 -2.405973615272744 0.794056830374534 31
1.716822859762016 -2.406008521106390 0.791986278013713 31
1.708138540737829 -2.409814125127429 0.791468639923508 32
1.687069515780821 -2.398676863194251 0.785774620931253 31
1.668461469119619 -2.388128705435810 0.780598240029203 31
1.664099713314923 -2.400578618909186 0.782668792390023 31
1.655289975399353 -2.406661725037641 0.782668792390023 31
1.643611456440275 -2.407638545381766 0.781115878119408 32
1.625863222837796 -2.398683617664795 0.776457135307562 30
1.610592444527000 -2.395008086407090 0.773351306766332 28
1.599423300388614 -2.395515883377737 0.771798392495717 29
1.593185852684318 -2.404305088662240 0.772833668676127 31
1.580537651791964 -2.403395296199912 0.770763116315307 30
1.561162623291267 -2.392992313860954 0.765586735413256 30
1.547967682995856 -2.390048801339831 0.762998544962231 28
1.544838001084726 -2.403563292481357 0.765586735413256 30
1.532283243405589 -2.402426086312644 0.763516183052436 31
1.525954164839236 -2.411024876063023 0.764551459232846 31
1.507862677660951 -2.401876184329130 0.759892716421001 30
1.495383631117488 -2.400566050631605 0.757822164060181 30
1.486398851350038 -2.403868613225498 0.757304525969976 31
1.477578248584815 -2.409300391037702 0.757304525969976 31
1.467571600316952 -2.410886645980244 0.756269249789566 31
1.452734742901207 -2.406326375964256 0.753163421248335 33
1.441194918976919 -2.404250550134373 0.751092868887515 33
1.432373219969015 -2.409516644686631 0.751092868887515 33
1.424935071017154 -2.416165906800696 0.751610506977720 34
1.414119299879011 -2.418037102408328 0.750575230797310 35
1.395426111981310 -2.404333992252440 0.744881211805055 35
1.386604414562978 -2.409432335180695 0.744881211805055 35
1.376690762687943 -2.410662101577985 0.743845935624645 37
1.366363255308413 -2.412091163028259 0.742810659444235 37
1.358356960035457 -2.416608924368867 0.742810659444235 38
1.341967229620997 -2.408071270446386 0.738669554722594 38
1.329815255355763 -2.405977825405448 0.736599002361774 38
1.321408723764903 -2.410605088868281 0.736599002361774 37
1.309715663811015 -2.408185382421226 0.734528450000954 38
1.300880426042558 -2.412969554983761 0.734528450000954 38
1.286493775958268 -2.405345644539729 0.730904983369518 38
1.275374226956646 -2.404701673912148 0.729352069098903 39
1.260259678901850 -2.397390151246731 0.725728602467468 37
1.249204766871900 -2.396635354627219 0.724175688196853 39
1.241718279324656 -2.402697504395012 0.724693326287058 38
1.225395225183491 -2.391543589545710 0.720034583475213 37
1.216582603926333 -2.393871787111343 0.719516945385008 38
1.204324768905269 -2.391413081033441 0.717446393024188 38
1.200703909359381 -2.404035008199501 0.720034583475213 38
1.193598324692650 -2.411882521348649 0.721069859655623 43
1.174946953711081 -2.393076934387865 0.714340564482957 41
1.166167996388240 -2.397367256415672 0.714340564482957 40
1.156533060513668 -2.397741196546973 0.713305288302547 40
1.147737131497972 -2.401963996953416 0.713305288302547 40
1.136457157856904 -2.398773494672999 0.711234735941727 40
1.122733311216547 -2.392429594029573 0.708128907400497 38
1.113978648046192 -2.394387993463519 0.707611269310292 39
1.107231464480735 -2.401770712959074 0.708646545490702 36
1.096432995748721 -2.400349408424006 0.707093631220087 40
1.089220338234200 -2.407872194548696 0.708128907400497 41
1.075696950006402 -2.399131541969659 0.704505440769061 43
1.064179006785679 -2.395809731398457 0.702434888408241 44
1.058921774246981 -2.406582797236035 0.704505440769061 44
1.050094094780905 -2.410447775006350 0.704505440769061 43
1.041404935773330 -2.410006117685298 0.703470164588651 44
1.029185562385414 -2.404746459921787 0.700881974137626 48
1.018018081150442 -2.405300352515077 0.699846697957216 48
1.011109328474059 -2.412402616521894 0.700881974137626 47
1.001941778377395 -2.414133067901353 0.700364336047421 45
0.992774476546866 -2.415828933942857 0.699846697957216 47
0.978930871026391 -2.404793562302646 0.695705593235576 48
0.967944861970464 -2.402989555214660 0.694152678964961 51
0.962118525350300 -2.411569130404207 0.695705593235576 50
0.950436097588882 -2.407891537106830 0.693635040874756 48
0.944274069347008 -2.414463839563831 0.694670317055166 53
0.931236076534761 -2.407098238125441 0.691564488513935 53
0.921866621995795 -2.406565049643185 0.690529212333525 53
0.913039928150848 -2.409927695288042 0.690529212333525 55
0.905043299720961 -2.412942194198659 0.690529212333525 53
0.896865154576331 -2.418054413164894 0.691046850423730 51
0.882183675906367 -2.402880284367584 0.685870469521680 57
0.873131219209205 -2.404129233317358 0.685352831431475 53
0.863427678088163 -2.403526186311788 0.684317555251065 55
0.858491240240213 -2.417597543398482 0.687423383792295 53
0.846626995025097 -2.409495427443261 0.684317555251065 55
0.836943032955461 -2.408786351400914 0.683282279070655 58
0.823508308401207 -2.397076830495432 0.679141174349014 55
0.817200944720665 -2.407396352772151 0.681211726709835 55
0.807983430128522 -2.406430296680738 0.680176450529425 55
0.800187005524757 -2.411069537343876 0.680694088619630 57
0.787733921323203 -2.402971789056354 0.677588260078399 57
0.777555071050343 -2.400193392771184 0.676035345807784 55
0.769761048055364 -2.404732831080291 0.676552983897989 57
0.761944800953829 -2.409247080135193 0.677070621988194 53
0.753374844960794 -2.409916679671525 0.676552983897989 57
0.740549424679179 -2.399740072257564 0.672929517266554 53
0.731169307914289 -2.394536216550033 0.670858964905734 55
0.723502779093354 -2.400899385113727 0.671894241086144 53
0.715799413184993 -2.407238472788980 0.672929517266554 55
0.708059283904007 -2.413553294972236 0.673964793446964 55
0.693479426896993 -2.391645265149760 0.667235498274298 51
0.686833726471081 -2.401600475259169 0.669306050635119 51
0.677815892506264 -2.400146617995584 0.668270774454709 51
0.670050790768163 -2.406336914975577 0.669306050635119 51
0.661555366074615 -2.406682894953869 0.668788412544914 47
0.650117238200600 -2.397790289818650 0.665682584003683 40
0.640745381629566 -2.396312440422504 0.664647307823273 55
0.631958153712926 -2.398644794078320 0.664647307823273 55
0.625458431276009 -2.406336430100290 0.666200222093888 51
0.617534391271110 -2.410376437511154 0.666717860184093 53
0.603441843454866 -2.390040480249667 0.660506203101633 48
0.597474144831525 -2.403484911064904 0.663612031642863 53
0.589460281949998 -2.403473819545880 0.663094393552658 51
0.582427814116395 -2.411150305880343 0.664647307823273 53
0.572693157349088 -2.409509829609410 0.663612031642863 55
0.561637978476394 -2.400207977821342 0.660506203101633 50
0.552822680994552 -2.400271271634136 0.659988565011428 51
0.543159765515530 -2.396534156434796 0.658435650740813 48
0.538154921156332 -2.411520475952776 0.662059117372248 57
0.527243397978196 -2.404041700102989 0.659470926921223 50
0.516007697304717 -2.390669964770995 0.655329822199582 48
0.508043318088787 -2.396324862069823 0.656365098379993 50
0.501301998765343 -2.401691290228974 0.657400374560403 47
0.492883785113334 -2.405405051753701 0.657918012650608 51
0.485285978605061 -2.408920092656220 0.658435650740813 50
0.473831592521618 -2.397416239510848 0.654812184109378 51
0.465928946728820 -2.396996634050565 0.654294546019172 50
0.457863708719857 -2.402483641645279 0.655329822199582 48
0.449474686333697 -2.404067247495604 0.655329822199582 50
0.442125400954170 -2.411322085570184 0.656882736470198 51
0.431313235323686 -2.399541043492347 0.653259269838762 48
0.422515580700461 -2.401105768273251 0.653259269838762 47
0.415627850841974 -2.406228612716183 0.654294546019172 50
0.406581668424661 -2.403855168946488 0.653259269838762 47
0.398819214002657 -2.409071580836042 0.654294546019172 50
0.388752710879815 -2.402888926246893 0.652223993658352 47
0.380596824291441 -2.400282339969343 0.651188717477942 50
0.372807714896007 -2.405414365511765 0.652223993658352 47
0.364566686642418 -2.410584878688219 0.653259269838762 47
0.356149954059095 -2.411842767800885 0.653259269838762 47
0.345656490944330 -2.401659029303916 0.650153441297532 47
0.337002502706576 -2.400937865993345 0.649635803207327 45
0.330087582285740 -2.409698116804850 0.651706355568147 45
0.321253380040947 -2.410891762797400 0.651706355568147 45
0.313179470637003 -2.408057674894836 0.650671079387737 45
0.303867144052125 -2.405356123728205 0.649635803207327 45
0.294762732554720 -2.400649807982064 0.648082888936712 47
0.286418739486754 -2.405550646605845 0.649118165117122 47
0.279948210931210 -2.412146791894062 0.650671079387737 44
0.271105370620022 -2.413156651456631 0.650671079387737 45
0.262264327678660 -2.406360483960719 0.648600527026917 45
0.253847351637627 -2.411148034704161 0.649635803207327 43
0.245008347268960 -2.412062236543598 0.649635803207327 43
0.236964217506991 -2.416748043563850 0.650671079387737 44
0.228344945560776 -2.415637201362370 0.650153441297532 41
0.218441141389843 -2.404914313353944 0.647047612756302 40
0.211811797131819 -2.411325179011781 0.648600527026917 39
0.203393411053184 -2.412049849543031 0.648600527026917 38
0.195128151276369 -2.414670704732727 0.649118165117122 41
0.186128084125118 -2.413443534172764 0.648600527026917 38
0.177555162137389 -2.406341030747019 0.646529974666097 38
0.169018950834462 -2.405019055070162 0.646012336575892 40
0.160295242701196 -2.413360728162040 0.648082888936712 40
0.152112669024356 -2.417761639127660 0.649118165117122 40
0.142793169772624 -2.410589035379664 0.647047612756302 40
0.134162769361819 -2.407215073961802 0.646012336575892 41
0.126599630543454 -2.407624678918626 0.646012336575892 40
0.117868765126140 -2.410002063498265 0.646529974666097 44
0.110561875766389 -2.416149962377018 0.648082888936712 40
0.101705500837158 -2.416538963097204 0.648082888936712 41
0.092822607214027 -2.405296770702857 0.644977060395482 41
0.084208392323210 -2.411412851114591 0.646529974666097 43
0.077114918134834 -2.413582954080391 0.647047612756302 41
0.068158947335823 -2.409987223802199 0.646012336575892 41
0.060359609146390 -2.417924996076417 0.648082888936712 41
0.051209142701648 -2.404610088289932 0.644459422305277 44
0.043373793996782 -2.412492840580585 0.646529974666097 44
0.034952358200597 -2.412629545644021 0.646529974666097 45
0.026445530959640 -2.405009914094787 0.644459422305277 44
0.017715517854187 -2.416681486320293 0.647565250846507 45
0.009654886271232 -2.405135928835009 0.644459422305277 45
0.001259336316568 -2.405154977766296 0.644459422305277 45
-0.007147692804371 -2.409008406941422 0.645494698485687 45
-0.015977101992027 -2.408966028494136 0.645494698485687 45
-0.024503199085241 -2.420486097785938 0.648600527026917 44
-0.032741734371538 -2.404932438101389 0.644459422305277 45
-0.041136315716261 -2.404803496448565 0.644459422305277 44
-0.049609962728891 -2.408508136964647 0.645494698485687 44
-0.058530977668469 -2.412172696245323 0.646529974666097 43
-0.067057881959296 -2.415815904899054 0.647565250846507 43
-0.074408368447109 -2.407869595499705 0.645494698485687 43
-0.083099658477951 -2.403719305526916 0.644459422305277 45
-0.090941990254430 -2.411168294886697 0.646529974666097 44
-0.099618979173202 -2.406958382111200 0.645494698485687 45
-0.108713217565119 -2.422035251501887 0.649635803207327 43
-0.116840114613678 -2.406183904410454 0.645494698485687 45
-0.124299016833642 -2.403875692704969 0.644977060395482 48
-0.133429313542297 -2.409190654586284 0.646529974666097 45
-0.141417744014092 -2.408734940489763 0.646529974666097 45
-0.150485833897474 -2.412056645208044 0.647565250846507 44
-0.158103617780607 -2.405761273908207 0.646012336575892 47
-0.166366914829919 -2.403267493201048 0.645494698485687 45
-0.175455571506207 -2.412305932400548 0.648082888936712 47
-0.184737539918464 -2.417425358627655 0.649635803207327 45
-0.192445819454358 -2.412947981808756 0.648600527026917 44
-0.199905552193355 -2.400710387453918 0.645494698485687 45
