# This PCD file was generated using the MATLAB® pcwrite function
# from Computer Vision Toolbox®.
# .PCD v.7 - Point Cloud Data file format
VERSION .7
FIELDS x y z intensity
SIZE 8 8 8 1
TYPE F F F U
COUNT 1 1 1 1
WIDTH 869
HEIGHT 1
VIEWPOINT 0 0 0 1 0 0 0
POINTS 869
DATA ascii
0.049552782982069 3.263157609960712 -0.285522213241328 30
0.060905821063786 3.260972716218903 -0.285347901755833 10
nan nan nan 0
0.085356725983243 3.326195260967239 -0.291100180777178 1
0.096386154669901 3.305961614657501 -0.289357065922225 1
0.107535434774928 3.293657053177647 -0.288311197009253 1
0.117736400021896 3.257422011886426 -0.285173590270338 1
0.127594933617473 3.233123597657814 -0.283081852444394 2
0.138879863727230 3.232658510926844 -0.283081852444394 6
nan nan nan 0
0.318813142280585 6.381634136162061 -0.559016933983479 63
0.341245769176505 6.404416631000781 -0.561108671809423 82
0.363034505623280 6.393240518187615 -0.560237114381947 76
0.386344221001454 6.389878230429008 -0.560062802896451 65
0.408137963130291 6.380537405011030 -0.559365556954470 48
0.431078334446060 6.389013213731851 -0.560237114381947 57
0.453800716160383 6.393431713691720 -0.560760048838433 63
0.476855191656247 6.401743127073567 -0.561631606265909 59
0.499818277677724 6.407985014907091 -0.562328852207891 55
0.519947056707952 6.406383169948180 -0.562328852207891 46
0.543314968764894 6.416440895723890 -0.563374721120862 44
nan nan nan 0
0.591735784106259 6.452172767698599 -0.566860950830769 2
0.672149596508919 7.044975426020532 -0.619154396479364 2
0.693990906682312 7.014828324316609 -0.616714035682429 2
nan nan nan 0
0.738326546413801 6.966224014335459 -0.612879183001532 2
1.304034104788744 11.907050412588635 -1.047960650797842 8
1.359690011549227 12.027151962622558 -1.058942274384047 8
1.418968820685049 12.170756343076308 -1.072015635796195 1
1.581448798502163 13.164703569941070 -1.160042935971330 19
1.627637091744989 13.161080405357293 -1.160217247456826 17
1.671304982174427 13.137530568549513 -1.158648444087368 12
1.716378334415792 13.125689875853775 -1.158125509630882 10
1.760593708332838 13.107770691433954 -1.157079640717910 10
1.806496948537199 13.119624177465594 -1.158648444087368 12
nan nan nan 0
1.443992323570877 9.983580870249792 -0.882539051062787 56
1.477664381935087 9.970596120849631 -0.881841805120805 75
1.513001286892051 9.957234122571014 -0.881144559178824 61
nan nan nan 0
2.083674901207207 13.096623184805422 -1.160217247456826 3
nan nan nan 0
1.698783743318951 10.228281214125577 -0.907116970517626 33
1.729810602275224 10.194788644796935 -0.904676609720692 35
1.775250911884775 10.245619382835798 -0.909731642800056 8
2.270087766212209 12.835005614773497 -1.140345738110359 5
2.342476644561586 12.979939173659478 -1.153942033978994 5
2.399312911019273 13.034386326985373 -1.159520001514844 10
2.210828742953372 11.790694983509940 -1.049529454167300 11
2.225417082835849 11.643961171330476 -1.037153338697132 1
2.340505450710484 12.007287410823173 -1.070272520941242 9
2.590379818207171 13.046517949807722 -1.163703477166732 26
2.577611507082663 12.760538114722058 -1.138951246226397 24
2.586422091853810 12.577774401395519 -1.123437524017314 6
2.622148630133749 12.529666622056107 -1.119951294307407 11
2.666699196233884 12.524334692595515 -1.120299917278398 13
2.137282161587382 9.868642594529767 -0.883410608490263 16
nan nan nan 0
2.282657227851741 10.212021404649654 -0.915483921821401 26
2.319614160723390 10.209819860537374 -0.916006856277887 36
2.362401787749779 10.224544428224723 -0.918098594103831 52
2.222786293505113 9.469463309671424 -0.850988672188134 9
2.429565790803569 10.190360111931934 -0.916529790734373 26
2.472154473497821 10.210863906412143 -0.919144463016803 36
2.516342584866670 10.236998572794354 -0.922282069755719 52
2.556884448206419 10.247483758305030 -0.924025184610672 47
nan nan nan 0
2.418628980842996 9.413117142768312 -0.850291426246153 1
2.447451701862590 9.389193477710448 -0.848896934362191 11
2.438449936428847 9.222644690362497 -0.834603392551575 2
2.484489970542342 9.272242800959326 -0.839832737116434 3
2.523109596906509 9.286586086420094 -0.841924474942378 3
2.586197749293770 9.389131713972196 -0.852034541101106 1
2.623242523189298 9.395398956414230 -0.853429032985069 7
2.204129869426060 7.789229822907668 -0.708227565567470 10
2.712934107913915 9.461125593127639 -0.861098738346863 1
2.307926241246171 7.943934227656650 -0.723741287776553 2
2.319890730331859 7.882312508757048 -0.718860566182684 2
2.801614576194423 9.397829242069944 -0.857961131607947 3
nan nan nan 0
3.243938900323952 10.617073204784745 -0.971263597179903 7
3.288045639403625 10.628525733374994 -0.973355335005846 7
3.287564501054002 10.503478171575836 -0.962896645876127 1
3.339854618812231 10.541321205120148 -0.967428744499006 1
3.449689818372211 10.750972119100302 -0.987823188301958 8
3.482889237536123 10.725600079429160 -0.986603007903490 9
3.518437459012998 10.713991429519156 -0.986603007903490 4
nan nan nan 0
nan nan nan 0
nan nan nan 0
nan nan nan 0
2.236023381955064 6.428208543102619 -0.595448034452001 6
2.287538479291521 6.503062101632010 -0.603117739813794 2
2.280845888731505 6.412441630933092 -0.595448034452001 6
2.308609539012938 6.419439616908581 -0.596842526335963 4
2.331003500157303 6.411341956331086 -0.596842526335963 4
2.384985582329423 6.489190020223647 -0.604860854668748 4
2.764255979595164 7.440809257900746 -0.694456958213340 12
2.772003192632043 7.382618640303510 -0.689924859590462 19
nan nan nan 0
1.821090066687443 4.751536537490487 -0.445191533955038 3
1.811762056789980 4.678265353012256 -0.438916320477207 3
1.827443929088301 4.667882931345045 -0.438567697506216 8
nan nan nan 0
nan nan nan 0
nan nan nan 0
nan nan nan 0
1.794080956596131 4.359243794607217 -0.412420974681918 6
1.807757221529177 4.349275135578862 -0.412072351710928 6
1.824470251741181 4.346612616757317 -0.412420974681918 8
1.852072096617132 4.369568129613761 -0.415209958449844 3
3.461820405337676 8.088726337479725 -0.769759519947317 8
3.542195076588238 8.197303000367649 -0.781264077990008 4
3.703835504800510 8.489858678317418 -0.810374096067726 10
3.755130825542582 8.526109326739343 -0.815080506176099 4
3.802676965700977 8.553001901645723 -0.818915358856996 4
3.803443720701955 8.482836916464432 -0.813337391321146 6
3.811672664886591 8.422314734932410 -0.808805292698268 6
2.131602841814184 4.664425108109501 -0.448677763664944 1
3.800915215288763 8.241039090161422 -0.793988816431166 14
3.835543968740208 8.240365350833773 -0.795208996829633 30
3.839720122548271 8.174629171654678 -0.790153963750269 36
3.878749545829111 8.187058824597880 -0.792594324547203 26
nan nan nan 0
2.110191762718538 4.372929699498169 -0.424797090152086 8
2.227485489125350 4.575125888304142 -0.445191533955038 1
nan nan nan 0
2.063295899970634 4.167434798134305 -0.406843007146068 1
2.060025504165440 4.124558428763526 -0.403356777436162 3
2.081582036103206 4.131577015735781 -0.404751269320125 3
2.265692522123589 4.458207268028000 -0.437521828593244 5
2.289420514026367 4.466228512613058 -0.439090631962702 12
2.306826701588288 4.461749400186279 -0.439439254933692 15
2.278168662461796 4.368871732429350 -0.431072303629917 6
2.193048363623381 4.168299323676772 -0.412072351710928 1
nan nan nan 0
nan nan nan 0
nan nan nan 0
2.240791934104166 4.120163276550446 -0.410329236855975 1
nan nan nan 0
nan nan nan 0
nan nan nan 0
nan nan nan 0
nan nan nan 0
nan nan nan 0
nan nan nan 0
nan nan nan 0
nan nan nan 0
nan nan nan 0
2.448224127394366 4.116729778393100 -0.419044811130740 1
2.446189401862769 4.080816645770889 -0.416255827362815 3
2.686060667200072 4.445713376773726 -0.454430042686290 19
2.694572561492016 4.426570399510918 -0.453384173773318 22
2.694379110331649 4.391663929120042 -0.450769501490888 24
2.705784970719102 4.377620554719694 -0.450246567034402 22
2.724209569463211 4.373222276327915 -0.450769501490888 5
2.720390211486228 4.333312680161758 -0.447631894751972 3
2.724847464493393 4.306953156374687 -0.445888779897019 26
2.737400765474979 4.291897751914885 -0.445365845440533 36
2.759906334945576 4.294048665752707 -0.446586025839000 36
2.789289922926597 4.308287482279336 -0.449026386635935 24
2.813020701835617 4.311874251788613 -0.450420878519897 33
2.843377092313669 4.325336912753767 -0.452861239316832 26
nan nan nan 0
2.984758615203015 4.475456741818580 -0.470641010837354 3
3.060369944250553 4.554310938398711 -0.480053831054101 1
nan nan nan 0
nan nan nan 0
3.107893903169910 4.522013689268265 -0.480053831054101 1
3.123659742300806 4.511137565361928 -0.480053831054101 1
3.098349775255882 4.441380246240953 -0.473778617576270 1
3.102377865621645 4.414237200589873 -0.472035502721317 9
3.116616210802071 4.401754923978759 -0.471861191235821 9
3.128491256130561 4.385982980816370 -0.471338256779335 9
3.146107416633846 4.378271760691986 -0.471686879750326 7
3.719810097429223 5.138716105653849 -0.555007769817087 4
4.155636354299012 5.698799888232960 -0.617062658653420 34
nan nan nan 0
4.176357991971263 5.644023899244265 -0.614273674885495 65
4.163884914026021 5.586280173107921 -0.609567264777121 72
4.172818849861282 5.559693581894043 -0.608172772893159 70
4.172975614606038 5.519664934374887 -0.605383789125234 70
4.176525270654630 5.484458556275649 -0.603117739813794 74
4.173817108317240 5.441390501170980 -0.599980133074879 74
4.171801566943764 5.397680491174191 -0.596842526335963 74
4.173483037481697 5.361075022927311 -0.594402165539029 74
4.176488830856302 5.328388630998578 -0.592310427713085 74
4.181482682757786 5.296575750211352 -0.590393001372636 70
3.987902389994230 5.015276877596567 -0.560585737352937 34
3.878348223329966 4.842701801892208 -0.542805965832415 40
3.890225273828322 4.822931209823142 -0.542108719890434 34
3.905780462986234 4.807776000599636 -0.541934408404938 34
3.912445559960819 4.781776901842073 -0.540539916520976 27
3.911374580086143 4.746564416752978 -0.538099555724042 27
3.916467692532793 4.719083763308793 -0.536530752354584 25
3.913750248700356 4.682453268345376 -0.533916080072154 19
3.917240426139095 4.653520750884596 -0.532172965217201 19
3.912846109841318 4.615502564281010 -0.529383981449276 19
3.887535335171336 4.553328044143361 -0.523806013913426 17
3.695570484997549 4.298014185244653 -0.495916176234175 22
3.696204245859886 4.268520048915172 -0.493998749893726 22
3.703224730427607 4.246582161348365 -0.492952880980755 16
3.708822473713113 4.223150341825235 -0.491732700582287 15
3.699782563457459 4.183314453565299 -0.488595093843372 15
3.695810580129232 4.149544761939721 -0.486154733046437 13
3.687657176119884 4.111404454180474 -0.483191437793017 11
3.675276332360385 4.068936322201361 -0.479705208083111 13
3.669347492988460 4.033974416917976 -0.477090535800681 13
3.624846844092132 3.958599469453348 -0.469595141924382 11
3.571110504222212 3.872686895523171 -0.460879567649616 14
3.627990995567105 3.906917289110778 -0.466457535185467 1
nan nan nan 0
4.172858053105639 4.431227417628770 -0.532521588188191 63
4.173219877148144 4.400731652851090 -0.530604161847743 61
4.174795833633176 4.371728461427216 -0.528861046992790 76
4.177601352325214 4.344204165421466 -0.527292243623332 78
4.176107646328062 4.312419895486808 -0.525200505797388 72
nan nan nan 0
nan nan nan 0
nan nan nan 0
nan nan nan 0
4.170318236218540 4.158688741047117 -0.515264751124155 22
4.166405261239894 4.125881182371955 -0.512998701812716 42
4.173678965660494 4.104327676926755 -0.512127144385239 48
4.179427598616445 4.081381736346750 -0.511081275472267 50
4.182206391898488 4.055671717261992 -0.509686783588305 34
4.176978855963807 4.023811108297360 -0.507420734276866 28
4.186679996897151 4.005074434279408 -0.506897799820380 16
4.177522650443304 3.968480163313323 -0.504108816052455 8
4.191349780444086 3.953873710622217 -0.504108816052455 6
4.210942058483326 3.944667517024709 -0.504806061994436 4
2.625840660849968 2.442645095658825 -0.313760673891569 2
2.628496972365924 2.428056621321591 -0.313063427949588 2
2.634019980819672 2.416173046656620 -0.312714804978597 2
2.636546227918955 2.401597183313464 -0.312017559036616 3
2.627182041412078 2.376340991236055 -0.309925821210672 3
2.638425536839248 2.369818654632098 -0.310274444181663 3
2.646681673488598 2.360594393051749 -0.310274444181663 3
2.639990361375217 2.338131585405288 -0.308531329326710 3
2.633174660317187 2.315744415889780 -0.306788214471757 3
2.640436779809221 2.307460639597552 -0.306788214471757 3
2.651484865059814 2.300841362077014 -0.307136837442747 4
2.652750802287459 2.284143331584166 -0.306265280015271 5
2.642535624223634 2.259332629548161 -0.304173542189327 10
2.638255208870316 2.239779073829566 -0.302779050305365 14
2.638440678104063 2.224135484602942 -0.301907492877888 16
2.646188285497530 2.214912057721441 -0.301907492877888 20
2.643177711382881 2.196747305941824 -0.300687312479421 22
2.636239510680337 2.177014781721918 -0.299118509109963 24
2.634578514397634 2.160219607502985 -0.298072640196991 29
2.642478419106854 2.150548884754899 -0.298072640196991 33
2.640670999410253 2.133798437063408 -0.297026771284019 32
2.646549206865210 2.123320963197202 -0.296852459798524 36
2.644594492949063 2.106621567499051 -0.295806590885552 33
2.639430121479988 2.087489916091959 -0.294412099001589 33
2.649834785488432 2.080724807944982 -0.294760721972580 34
2.652006865565407 2.068250398136450 -0.294237787516094 33
2.657634888288932 2.057760790911879 -0.294063476030599 34
2.646201248109375 2.033438334101661 -0.291971738204655 36
2.650115051659808 2.021772037502632 -0.291623115233664 37
2.653628821373954 2.010566399930776 -0.291274492262674 34
2.660630841008397 2.001291257671425 -0.291274492262674 34
2.658368363393675 1.984375214191150 -0.290228623349702 33
2.649271248593255 1.963221322919467 -0.288485508494749 33
2.643268836723048 1.944516547882834 -0.287091016610786 33
2.650040362464536 1.935277971116867 -0.287091016610786 34
2.654830506421166 1.925309789746986 -0.286916705125291 35
2.663151889023422 1.917195025075009 -0.287091016610786 32
2.647793731822181 1.890745450309986 -0.284650655813852 33
2.651126612180519 1.879187069003419 -0.284302032842861 33
2.656040574866527 1.868774973778000 -0.284127721357366 34
2.660914170558402 1.858351483961963 -0.283953409871870 34
2.660191050664228 1.845440196690664 -0.283256163929889 33
2.650206683797805 1.824843811495650 -0.281513049074936 33
2.650296768816868 1.810622412848593 -0.280815803132955 33
2.658249912397036 1.802478282456647 -0.280990114618450 34
2.659254317915397 1.790315232996780 -0.280467180161964 34
2.665487483229827 1.781021795935446 -0.280467180161964 34
2.657051436541757 1.761332835949497 -0.278898376792506 35
2.661518958176728 1.750952235409235 -0.278724065307011 34
2.672315026350810 1.745385204779380 -0.279246999763497 34
2.671703658359116 1.731711753311298 -0.278549753821516 34
2.673005157999330 1.718675220343489 -0.278026819365030 34
2.665551237971068 1.700760757174069 -0.276632327481067 33
2.658004985099444 1.682919378057762 -0.275237835597104 34
2.668924448051899 1.676810749097918 -0.275760770053590 35
2.674179125114046 1.668417814728591 -0.275760770053590 34
2.678292648359895 1.658024304283636 -0.275586458568095 33
2.665674918399739 1.636729204912690 -0.273669032227647 34
2.667968907745381 1.625341152247026 -0.273320409256656 34
2.669652375560535 1.614889035678924 -0.272971786285665 35
2.671856429620943 1.603509847278003 -0.272623163314675 34
2.677715640668327 1.593706233452235 -0.272623163314675 35
2.669537272661685 1.576245462376956 -0.271228671430712 35
2.664435668433027 1.561340392741284 -0.270182802517740 36
2.669869530830708 1.552030264384517 -0.270182802517740 35
2.672087763348387 1.540244298970830 -0.269834179546750 36
2.679177557549623 1.531896546733142 -0.270008491032245 36
2.672112565848921 1.516121129560214 -0.268788310633778 36
2.673915918715044 1.504830154445940 -0.268439687662787 36
2.675673047025745 1.493545086849535 -0.268091064691796 35
nan nan nan 0
2.714237856018989 1.489698244712634 -0.270880048459722 1
1.669451708961574 0.908703239416586 -0.166293157162532 1
1.672613504339149 0.902870229314950 -0.166293157162532 1
1.651163128178277 0.883862311261036 -0.163852796365597 1
1.632969063302790 0.867168610038520 -0.161761058539654 2
1.621882769600994 0.854036794272047 -0.160366566655691 2
1.624854033280717 0.848370163802602 -0.160366566655691 2
1.620728083415395 0.839029312748656 -0.159669320713710 3
1.609322441222728 0.826369383953589 -0.158274828829747 4
1.617523846884239 0.823458484160618 -0.158797763286233 5
1.620531108510439 0.817524431882753 -0.158797763286233 10
1.614465077076750 0.807406854319816 -0.157926205858757 12
1.615348742077622 0.801163392380039 -0.157751894373261 12
1.625287462984871 0.799036002065966 -0.158449140315243 10
1.635369978776851 0.796563531839532 -0.159146386257224 10
1.639934780529038 0.791716382855596 -0.159320697742719 11
1.642688395397424 0.785987118785931 -0.159320697742719 12
1.643621751743590 0.779394614387731 -0.159146386257224 7
1.660621790903334 0.780721393342503 -0.160540878141186 7
1.666948923733732 0.776602764671120 -0.160889501112177 11
1.673267493311222 0.772449456709059 -0.161238124083168 10
1.672329967412604 0.764946435069564 -0.160889501112177 6
1.673175216699936 0.758281822309081 -0.160715189626682 3
1.697622921796695 0.762229833950291 -0.162806927452625 3
1.725759152604229 0.767635773612004 -0.165247288249560 2
1.735721133527627 0.764820605238589 -0.165944534191541 1
1.752988518704440 0.765133258748119 -0.167339026075504 1
1.773936659186718 0.766915874664125 -0.169082140930457 1
2.701535318987277 1.156763439757102 -0.257109441105592 10
2.701888166765320 1.145770577630788 -0.256760818134601 21
2.683630681898983 1.127543357350457 -0.254669080308657 30
2.687550193118566 1.118168868732760 -0.254669080308657 35
2.687559286219257 1.107732001901270 -0.254320457337667 36
2.695099008439330 1.099849532547105 -0.254669080308657 37
2.695227157740898 1.088942456310471 -0.254320457337667 37
2.711961193232826 1.084707088971301 -0.255540637736134 36
2.693687370212623 1.065962479026031 -0.253448899910190 37
2.701102167959113 1.058006566910601 -0.253797522881181 39
2.704778844040465 1.048571515067285 -0.253797522881181 36
2.704702202581381 1.037696319009441 -0.253448899910190 37
2.708307960734510 1.028248824437157 -0.253448899910190 37
2.700690014529732 1.014584720643285 -0.252403030997218 37
2.700480018832452 1.003763041400324 -0.252054408026227 37
2.700227426281844 0.992955207511926 -0.251705785055237 37
2.699932331036563 0.982161384341913 -0.251357162084246 37
2.707093702412049 0.974080019367376 -0.251705785055237 36
2.699215012268680 0.960616429165638 -0.250659916142265 39
2.698792980228664 0.949865625433099 -0.250311293171274 38
2.702092188047966 0.940439292990825 -0.250311293171274 38
2.707242426094183 0.931649831329034 -0.250485604656770 41
2.712364203432014 0.922835865352103 -0.250659916142265 37
2.696684630945421 0.907010709561718 -0.248916801287312 37
2.695739935421679 0.897275911468277 -0.248568178316321 38
2.706426011892586 0.890351048980413 -0.249265424258302 37
2.709671133079876 0.880425521451389 -0.249265424258302 38
2.705139833404935 0.868525383886059 -0.248568178316321 36
2.704506503978720 0.857400502846230 -0.248219555345330 35
2.707482913478263 0.847954789813361 -0.248219555345330 39
2.710279946232833 0.838971790581971 -0.248219555345330 38
2.711286660892744 0.828923518464515 -0.248045243859835 49
2.710348919428132 0.818302583984068 -0.247696620888845 28
nan nan nan 0
nan nan nan 0
2.850785645281408 0.828229792740076 -0.259724113388021 1
nan nan nan 0
3.623343432265689 1.025302843518399 -0.329448707586148 3
3.611548373360209 1.008362424150788 -0.328054215702185 18
3.601600238072395 0.992045986073204 -0.326834035303718 17
3.616577314400869 0.982602308857380 -0.327879904216690 16
3.618060702740459 0.969456443466086 -0.327705592731195 12
3.623348983450343 0.957330095912700 -0.327879904216690 10
3.620884453952952 0.943169754323819 -0.327356969760204 20
3.683647909991616 0.947170756054347 -0.332760625810559 16
3.725558549137268 0.944095095370594 -0.336246855520465 16
3.779419521160159 0.942315121117393 -0.340778954143343 15
3.842666996142627 0.943849541587894 -0.346182610193698 15
3.864976830641037 0.936464515322034 -0.347925725048651 13
3.916671831356166 0.934527737685195 -0.352283512186034 15
3.972441798076009 0.932459305427790 -0.356989922294408 13
4.012556167294570 0.927109264340003 -0.360301840518819 13
3.813565314537835 0.867820790594318 -0.342173446027306 10
3.750466692066311 0.839703307039920 -0.336246855520465 16
3.769085861698041 0.829376927380343 -0.337641347404428 11
3.805062397202036 0.823378789378872 -0.340604642657848 12
3.809862122375414 0.810506207812178 -0.340778954143343 16
3.824369389222811 0.799649026209664 -0.341824823056315 16
3.807621131980814 0.782284952584409 -0.340081708201362 16
3.810328618726720 0.768989108543788 -0.340081708201362 16
3.809080923666265 0.754909231471975 -0.339733085230372 16
3.811692842418977 0.741608458589703 -0.339733085230372 16
3.818172383923363 0.729046005675793 -0.340081708201362 16
3.812860663901420 0.714246277169249 -0.339384462259381 16
3.807370098696208 0.700157054565045 -0.338687216317400 16
3.815673239954840 0.687923105807976 -0.339210150773886 17
3.821975292604277 0.675293048901976 -0.339558773744876 17
3.800750847438406 0.657870044434560 -0.337467035918932 18
3.810881574748214 0.645930756132624 -0.338164281860914 18
3.801319943434783 0.630667791548322 -0.337118412947942 18
3.807431522939774 0.618033330648601 -0.337467035918932 18
3.803662413103158 0.603802053355173 -0.336944101462446 20
3.805643779040202 0.591185334343024 -0.336944101462446 21
3.801774721294525 0.577000664571790 -0.336421167005961 21
3.797951256697679 0.562187361222801 -0.335898232549475 21
3.795946677682916 0.548356890810869 -0.335549609578484 21
3.807702187673270 0.536493101892783 -0.336421167005961 22
3.799682395330953 0.521843035906162 -0.335549609578484 22
3.801480818497323 0.508576489929145 -0.335549609578484 22
3.789402983922069 0.493502642573158 -0.334329429180017 23
3.799008909376552 0.481273761423038 -0.335026675121998 23
3.798688269900458 0.467766312048778 -0.334852363636503 25
3.806232810575481 0.455213357808965 -0.335375298092989 26
3.795923981005517 0.440546210074946 -0.334329429180017 28
3.789519068109648 0.426402156116980 -0.333632183238036 30
3.794945723566959 0.413603404561451 -0.333980806209026 30
3.794384946707474 0.400145099032979 -0.333806494723531 31
3.789812238956620 0.386291679835764 -0.333283560267045 28
3.795037947549303 0.374113008285733 -0.333632183238036 18
3.792353827671973 0.360486496553557 -0.333283560267045 32
3.791604961359450 0.347064900804729 -0.333109248781550 33
3.794778060750640 0.334002302538972 -0.333283560267045 33
3.795920827274131 0.320754020274426 -0.333283560267045 35
3.787087903045185 0.306697693139364 -0.332412002839568 27
3.792108279595121 0.293784209474055 -0.332760625810559 8
4.434899437763268 0.328013377183979 -0.389063235625546 9
3.334962901368018 0.234958108955330 -0.292494672661141 4
3.387449171508987 0.226775676790240 -0.297026771284019 1
nan nan nan 0
nan nan nan 0
3.337918350044652 0.188371852727628 -0.292494672661141 1
3.350493178931069 0.177351087926621 -0.293540541574113 2
3.410790623108124 0.168605695200972 -0.298769886138972 1
4.585629943937209 0.210638275948456 -0.401613662581209 4
4.590250189681884 0.196401418322501 -0.401962285552199 3
3.372505551462943 0.132506104000939 -0.295283656429066 1
3.293302967668764 0.117882215890305 -0.288311197009253 1
nan nan nan 0
4.582610095591969 0.131205714780083 -0.401090728124723 7
4.557147287859651 0.114557724850448 -0.398824678813284 7
3.195044198431018 0.069158208623478 -0.279595622734487 1
3.294869199564324 0.059813137699360 -0.288311197009253 1
3.295049430767569 0.048886628820314 -0.288311197009253 1
4.598138818313505 0.052166468173806 -0.402310908523190 1
3.315238196530395 0.025459702175847 -0.290054311864206 1
3.263505200067879 0.013670218567792 -0.285522213241328 2
3.295410254375805 0.003450946810034 -0.288311197009253 1
nan nan nan 0
nan nan nan 0
3.219552922836522 -0.030906438735464 -0.281687360560431 2
3.239347611647747 -0.042405383123517 -0.283430475415384 2
4.585849953235440 -0.076043240311898 -0.401265039610218 10
4.595532545378094 -0.091448245984706 -0.402136597037695 7
3.167032804879221 -0.074082208384893 -0.277155261937553 1
3.158758400016629 -0.086025203958952 -0.276458015995572 1
3.158438871779554 -0.097050804343339 -0.276458015995572 1
3.293523215794662 -0.111559314719499 -0.288311197009253 2
3.320987733608448 -0.124096756023268 -0.290751557806188 6
3.288659169302024 -0.134960824386123 -0.287962574038263 3
3.160781377461277 -0.140766361457668 -0.276806638966562 1
3.112482335329235 -0.150047736030135 -0.272623163314675 1
3.131836920755559 -0.161940258106762 -0.274366278169628 1
3.139270308955838 -0.172214938410172 -0.275063524111609 1
3.126716010553711 -0.182475516128953 -0.274017655198637 1
3.122049070233135 -0.193687541819286 -0.273669032227647 1
3.109425212724556 -0.203802495806976 -0.272623163314675 1
3.104719552444341 -0.214380678584735 -0.272274540343684 1
3.084080655503125 -0.223775016868398 -0.270531425488731 2
3.051534812519943 -0.231588585384209 -0.267742441720806 4
nan nan nan 0
nan nan nan 0
nan nan nan 0
3.046019502021581 -0.273993592966297 -0.267568130235311 56
3.029174589594570 -0.283141130889480 -0.266173638351348 34
3.028167787837110 -0.293713198464944 -0.266173638351348 23
3.041000885550588 -0.305676560722167 -0.267393818749815 13
nan nan nan 0
3.387378093589814 -0.364996372905040 -0.298072640196991 3
nan nan nan 0
nan nan nan 0
3.812879144062570 -0.449934450940162 -0.335898232549475 42
3.829085852784893 -0.465404696657300 -0.337467035918932 43
3.825460976703589 -0.478520567752624 -0.337292724433437 41
3.811910679329669 -0.490345821808469 -0.336246855520465 42
3.816101452902565 -0.504432165621713 -0.336769789976951 43
3.826163113286882 -0.519357690933333 -0.337815658889923 43
3.824233872593705 -0.533377791359671 -0.337815658889923 42
3.828265686621011 -0.547569930595656 -0.338338593346409 42
3.822388348929865 -0.560351755499034 -0.337989970375418 42
3.816468471697416 -0.573099227937463 -0.337641347404428 41
3.824393555288219 -0.587263950479005 -0.338512904831904 43
3.828225039318382 -0.601537819271401 -0.339035839288390 40
3.831895856534442 -0.616514382514349 -0.339558773744876 42
3.823822547702947 -0.628916388207973 -0.339035839288390 42
3.817786176079342 -0.640933446810704 -0.338687216317400 41
3.835162932577722 -0.657623349798144 -0.340430331172353 41
3.836769117071775 -0.671693714945465 -0.340778954143343 41
3.838323754509927 -0.685783297913359 -0.341127577114334 41
3.835906539688705 -0.699177370132594 -0.341127577114334 41
3.833442585556835 -0.712562923096221 -0.341127577114334 40
3.846592349002991 -0.728907355458001 -0.342522068998297 38
3.851849539121093 -0.743841132113940 -0.343219314940278 38
3.849229582235046 -0.757282064424175 -0.343219314940278 41
3.846562723701282 -0.770713769491439 -0.343219314940278 38
3.843848996014631 -0.784136083654645 -0.343219314940278 40
3.850842338874428 -0.799574107062830 -0.344090872367754 37
3.861815674128718 -0.815220200860626 -0.345311052766222 37
3.864790434226756 -0.829950452009642 -0.345833987222708 36
3.857976806948650 -0.842585793930898 -0.345485364251717 36
3.858902151870187 -0.856911334720976 -0.345833987222708 35
3.863661430014448 -0.872130987100029 -0.346531233164689 36
3.876129173873690 -0.889176201489129 -0.347925725048651 33
3.872844144967683 -0.903376952683045 -0.347925725048651 31
3.875483309267881 -0.918268289376883 -0.348448659505137 31
3.870317248273608 -0.931324527878064 -0.348274348019642 30
3.892203678441967 -0.950976316930021 -0.350540397331081 30
3.987656506417205 -0.988322547767383 -0.359430283091342 19
3.984182322749092 -1.002236045395760 -0.359430283091342 20
3.945910867239956 -1.007267073111815 -0.356292676352427 20
3.919225775061663 -1.015040402762011 -0.354200938526483 20
3.904096761093658 -1.025677325879969 -0.353155069613511 28
3.896642256978199 -1.038272956567453 -0.352806446642520 41
3.889147436053908 -1.050829055159804 -0.352457823671530 46
3.872004531739945 -1.060713450529085 -0.351237643273062 45
3.881716549111544 -1.077954597785221 -0.352457823671530 46
3.883683742167611 -1.093117182745905 -0.352980758128016 44
3.891340225627067 -1.109946122909877 -0.354026627040987 45
3.887442083246001 -1.123522673003964 -0.354026627040987 44
3.872419419417628 -1.132374683798879 -0.352980758128016 45
3.872263786565985 -1.147016789633809 -0.353329381099006 44
3.872053070394162 -1.161671592786963 -0.353678004069997 45
3.883225251844423 -1.179814038759857 -0.355072495953959 44
3.877178962495583 -1.192775993823929 -0.354898184468464 41
3.867285010305186 -1.204525147619495 -0.354375250011978 44
3.870444512912920 -1.221089183917087 -0.355072495953959 42
3.875648370556399 -1.237622534808544 -0.355944053381436 41
3.865835116904407 -1.248630720882210 -0.355421118924950 42
3.880391004967017 -1.268307280858813 -0.357164233779903 45
3.864590394167519 -1.278091074811435 -0.356118364866931 42
3.875220919299525 -1.296630781634142 -0.357512856750894 42
3.868784012341275 -1.309511141579237 -0.357338545265398 41
3.879269158960031 -1.328170697011167 -0.358733037149361 39
3.885905581356718 -1.345615454553527 -0.359778906062333 41
3.869902318551084 -1.355220518192718 -0.358733037149361 41
3.868904357184581 -1.370050888224002 -0.359081660120352 39
3.871601520144563 -1.386234037948461 -0.359778906062333 41
3.885473274152935 -1.406521689927017 -0.361522020917286 37
3.873055759873055 -1.417337137973239 -0.360824774975305 33
3.864596884010788 -1.428791051179378 -0.360476152004314 35
3.878249302953113 -1.449246544539480 -0.362219266859267 35
3.865711294206132 -1.459959594728235 -0.361522020917286 35
3.882928610280763 -1.481969784413879 -0.363613758743230 37
3.877731914225611 -1.495514705995497 -0.363613758743230 34
3.885482895302065 -1.514105302535274 -0.364833939141697 35
3.870904602221157 -1.524009496427098 -0.363962381714221 33
3.887777102597844 -1.546348467223217 -0.366054119540164 34
3.887901875825849 -1.562138363728702 -0.366577053996650 31
3.891655991999998 -1.579446471993587 -0.367448611424127 30
3.887962495592434 -1.593776966648106 -0.367622922909622 27
nan nan nan 0
nan nan nan 0
nan nan nan 0
4.631087844250057 -1.975326361518307 -0.440485123846664 78
4.620504648656442 -1.989903679161666 -0.440136500875674 85
4.617535043958165 -2.006803172582717 -0.440485123846664 78
4.621448839136056 -2.027712260080479 -0.441530992759636 71
4.621629409982010 -2.047059300969125 -0.442228238701618 80
4.629006587782705 -2.069685213546280 -0.443622730585580 77
4.629382437681238 -2.088301224475785 -0.444319976527561 78
4.625691273245371 -2.106099257215010 -0.444668599498552 77
4.629173788989045 -2.127224634114940 -0.445714468411524 78
4.632565052313188 -2.148399924846447 -0.446760337324496 77
4.643082919732179 -2.173002911612045 -0.448503452179449 71
4.628263110424522 -2.185793719072945 -0.447806206237468 73
4.627799472122439 -2.205364527511584 -0.448503452179449 73
4.630846705928172 -2.226685472647526 -0.449549321092421 71
4.635593921818264 -2.248924153573708 -0.450769501490888 66
4.638452628777256 -2.270347128008444 -0.451815370403860 68
4.623353546945591 -2.282995930291517 -0.451118124461879 66
4.626056444577610 -2.304450801097142 -0.452163993374851 66
4.628665762984626 -2.325952294287011 -0.453209862287822 68
4.631181209843106 -2.347500017522338 -0.454255731200794 68
4.626506625372600 -2.365465562326261 -0.454604354171785 66
4.618221423398206 -2.381600672999971 -0.454604354171785 66
4.612996263904902 -2.400350653089739 -0.454952977142776 68
4.623995687912042 -2.426622614374125 -0.456870403483224 77
4.622967815426594 -2.445669729078183 -0.457567649425205 73
4.624949876327030 -2.467418951507844 -0.458613518338177 70
4.619384106036445 -2.486242191288448 -0.458962141309168 70
4.621184029118869 -2.508053986569701 -0.460008010222140 70
4.619833415916033 -2.527189323364664 -0.460705256164121 71
4.631918960260805 -2.554847488193812 -0.462796993990065 71
4.636902520144539 -2.578747231335263 -0.464191485874027 70
4.629610604693607 -2.595891764914545 -0.464365797359523 66
4.627915265916020 -2.615150599345399 -0.465063043301504 73
4.636070180432370 -2.641151508871269 -0.466806158156457 71
4.640179076411709 -2.666066445183374 -0.468200650040420 71
4.641188901440764 -2.688239067790140 -0.469246518953392 71
4.628807368145786 -2.701606394673835 -0.468897895982401 71
4.619348801682331 -2.717747488553580 -0.468897895982401 73
4.628684572011516 -2.745034802163464 -0.470815322322849 82
4.629335222370658 -2.767308875988352 -0.471861191235821 88
4.605994859592921 -2.775225475200988 -0.470466699351859 54
4.555408498807788 -2.766465861760406 -0.466283223699971 48
4.527031280993954 -2.770908909932784 -0.464365797359523 49
4.495287388937205 -2.773095583227528 -0.462099748048084 52
4.460199593639602 -2.772990632880999 -0.459485075765654 50
3.820738004713713 -2.393957595845805 -0.394466891675901 25
3.775296001633597 -2.383877243097887 -0.390632038995004 30
3.748461547696718 -2.385275031384840 -0.388714612654555 36
3.731726644550185 -2.392967616760901 -0.387843055227079 15
3.037250279658639 -1.962630219640675 -0.316375346173999 3
2.995318659184483 -1.950389597154494 -0.312714804978597 2
2.955175755604746 -1.938973424707832 -0.309228575268691 1
2.955037474651266 -1.953672313555566 -0.309925821210672 1
2.951516192854582 -1.966184613052639 -0.310274444181663 2
2.944634946105753 -1.976475348558773 -0.310274444181663 7
2.921213787213259 -1.975580529418901 -0.308531329326710 16
2.899481453002151 -1.975668320177879 -0.306962525957252 20
2.882711993332836 -1.979011511446531 -0.305916657044280 20
2.864316018460069 -1.981128416714244 -0.304696476645813 20
2.849209846622434 -1.985419267653997 -0.303824919218336 22
2.837370064332276 -1.991918428066415 -0.303301984761850 20
2.814133020365326 -1.990305904043397 -0.301558869906897 21
2.787696723179219 -1.986243292343376 -0.299467132080953 20
2.774272076043212 -1.991314893035101 -0.298769886138972 20
2.757617008890672 -1.993982156851880 -0.297724017226000 20
2.747419022079837 -2.001249757527918 -0.297375394255010 21
2.716669341993493 -1.992673531478463 -0.294760721972580 19
2.700082525249560 -1.995040335916579 -0.293714853059608 19
2.683860960515119 -1.996847317733992 -0.292668984146636 19
2.675279985029731 -2.005008695283931 -0.292494672661141 20
2.655193800201020 -2.005194895297103 -0.291100180777178 21
2.625977891270450 -1.997563421493239 -0.288659819980244 18
2.616175840482856 -2.003837474785047 -0.288311197009253 18
2.599700275539474 -2.005655281605919 -0.287265328096281 18
2.592331719766162 -2.015170187842196 -0.287265328096281 19
2.572731758708009 -2.014380590339985 -0.285870836212319 19
2.550040166090378 -2.011011334946183 -0.284127721357366 18
2.525843508111954 -2.006269154902992 -0.282210295016917 17
2.515713352403172 -2.012584489250543 -0.281861672045926 17
2.496261303047417 -2.011353193191093 -0.280467180161964 18
2.489225162098988 -2.020054517389386 -0.280467180161964 17
2.466731974190981 -2.016122581323515 -0.278724065307011 17
2.450801815891029 -2.016695633573045 -0.277678196394039 17
2.440679196202594 -2.022695570007719 -0.277329573423048 17
2.433249252763947 -2.031627520395578 -0.277329573423048 17
2.413943390213331 -2.029850521496938 -0.275935081539086 17
2.397720593599236 -2.030538814160400 -0.274889212626114 17
2.375458805046823 -2.025967096178491 -0.273146097771161 17
2.367570471222512 -2.032122158652679 -0.272971786285665 18
2.358955297405134 -2.039071220577375 -0.272797474800170 17
2.330430405581605 -2.029385413283687 -0.270357114003236 17
2.314344584776867 -2.029625728104057 -0.269311245090264 16
2.298639819517506 -2.029377408978671 -0.268265376177292 17
2.294519928561821 -2.040036474402903 -0.268613999148282 17
2.269217981019245 -2.032481153378444 -0.266522261322339 17
2.262109472952299 -2.040389819764620 -0.266522261322339 17
2.243174979810765 -2.037556692664920 -0.265127769438376 17
2.227228207695253 -2.037305882939890 -0.264081900525404 17
2.217172284801911 -2.042368188602800 -0.263733277554414 17
2.204186806785912 -2.044675173924823 -0.263036031612432 17
2.197036129836057 -2.052356764860483 -0.263036031612432 16
2.170993100934844 -2.042266381259814 -0.260769982300993 17
2.160225720936346 -2.044967556880369 -0.260247047844507 16
2.153074291205493 -2.052495693208193 -0.260247047844507 16
2.131166413261717 -2.046573095595201 -0.258503932989554 18
2.126874033006252 -2.056769846627573 -0.258852555960545 17
2.105765468078621 -2.049913785685145 -0.257109441105592 17
2.092905993785612 -2.051672802214730 -0.256412195163610 17
2.080059966697605 -2.053367088390806 -0.255714949221629 17
2.075705717395882 -2.063424634379943 -0.256063572192620 17
2.060041810184230 -2.062200211256622 -0.255017703279648 17
2.038799184593241 -2.055233774479253 -0.253274588424695 17
2.026019781603508 -2.056660528773683 -0.252577342482713 18
2.016041840847180 -2.060871652725368 -0.252228719511723 18
2.007447497601463 -2.066467304306597 -0.252054408026227 18
1.993305553738005 -2.066292366777343 -0.251182850598751 17
1.966784985318008 -2.053095223143544 -0.248742489801816 17
1.955486658206214 -2.055617421098016 -0.248219555345330 18
1.949307244003788 -2.064219405827585 -0.248393866830826 17
1.936638417351918 -2.065197817265190 -0.247696620888845 17
1.931137369458392 -2.073066439158475 -0.247870932374340 18
1.906300953643218 -2.060781142080502 -0.245604883062901 16
1.891008876711940 -2.058619031485588 -0.244559014149929 16
1.889182244110146 -2.071095317802801 -0.245256260091910 17
1.873915926887942 -2.068817146051321 -0.244210391178938 17
1.872012563988050 -2.081271056242011 -0.244907637120919 18
1.849170843270476 -2.069638526759668 -0.242815899294976 16
1.834001514494020 -2.067138528798379 -0.241770030382004 18
1.834313602657733 -2.082817813961265 -0.242815899294976 17
1.819162551718940 -2.080209331493473 -0.241770030382004 16
1.811890183111201 -2.086546720482037 -0.241770030382004 16
1.796789266808980 -2.083805223327045 -0.240724161469032 17
1.782092835215177 -2.080672834145758 -0.239678292556060 17
1.772237519505160 -2.083845359837072 -0.239329669585069 18
1.764952744673292 -2.090018927743602 -0.239329669585069 18
1.752525862950455 -2.090060206328035 -0.238632423643088 17
1.735021007322839 -2.083915609587656 -0.237237931759126 17
1.717580527226006 -2.077674422127270 -0.235843439875163 18
1.709416905101072 -2.081818893775039 -0.235669128389668 18
1.700880607696282 -2.086228978222188 -0.235494816904172 17
1.696095109238254 -2.095250641876986 -0.235843439875163 18
1.676289308775279 -2.085628728012522 -0.234100325020210 18
1.665634864591878 -2.086504756877740 -0.233577390563724 18
1.659579024442711 -2.093867618408307 -0.233751702049219 17
1.646966120750269 -2.093672423658813 -0.233054456107238 18
1.637195079549459 -2.096268176241629 -0.232705833136247 17
1.620100765885654 -2.089374205781431 -0.231311341252285 17
1.610366876194399 -2.091859160369075 -0.230962718281294 18
1.604264967066054 -2.099050639912039 -0.231137029766789 18
1.590906539929613 -2.096701741654626 -0.230265472339313 18
1.585975536954290 -2.105425072337356 -0.230614095310303 17
1.571457310820952 -2.101374871291690 -0.229568226397332 17
1.555799139281611 -2.095649352372457 -0.228348045998864 18
1.549656521030534 -2.102671205623297 -0.228522357484360 17
1.535248772726026 -2.098419799036995 -0.227476488571388 17
1.530256198944840 -2.106990195549470 -0.227825111542378 18
1.515901019309853 -2.102621999972364 -0.226779242629407 17
1.503914131983457 -2.101419809175280 -0.226081996687425 17
1.496569645593034 -2.106656646599860 -0.226081996687425 18
1.486910537043971 -2.108611272572118 -0.225733373716435 17
1.479909954544069 -2.113530451739924 -0.225733373716435 17
1.465700838400627 -2.108867131304599 -0.224687504803463 17
1.453805125387804 -2.107410501381095 -0.223990258861481 17
1.448691301394005 -2.115760284002774 -0.224338881832472 17
1.432705809646475 -2.107371315643194 -0.222944389948510 18
1.429798655574322 -2.118965838142297 -0.223641635890491 17
1.414264151454841 -2.112602566988531 -0.222421455492024 18
1.404676033224091 -2.114207392556822 -0.222072832521033 19
1.397287514430099 -2.119097746465189 -0.222072832521033 18
1.387700051808246 -2.120627959145781 -0.221724209550042 19
1.380289224477890 -2.125459016704306 -0.221724209550042 19
1.365306522900979 -2.118541024302329 -0.220504029151575 19
1.354682793164665 -2.118258446904044 -0.219981094695089 19
1.348348013752516 -2.124656497163508 -0.220155406180585 20
1.337047020118679 -2.122373054365431 -0.219458160238603 20
1.329630409864828 -2.127027289215486 -0.219458160238603 20
1.315896418507150 -2.121496803381505 -0.218412291325631 20
1.302217315050707 -2.115896477332870 -0.217366422412659 20
1.298976927910680 -2.127230870709489 -0.218063668354641 20
1.292576001596324 -2.133456225061240 -0.218237979840136 21
1.282041611431541 -2.132832263815327 -0.217715045383650 21
1.265404439772331 -2.121893589666460 -0.216146242014192 22
1.257989939633728 -2.126297748163101 -0.216146242014192 21
1.251568627503484 -2.132394285488178 -0.216320553499688 20
1.245120069521923 -2.138471881018960 -0.216494864985183 22
1.234658336429065 -2.137629275040441 -0.215971930528697 20
1.220255824086063 -2.129824736826964 -0.214751750130230 23
1.210845060381498 -2.130606847546976 -0.214403127159239 22
1.203400477691352 -2.134820505184585 -0.214403127159239 21
1.195941231946156 -2.139008150708045 -0.214403127159239 22
1.186908374086059 -2.139477782254611 -0.214054504188248 22
1.171749369462897 -2.129642959354935 -0.212660012304286 22
1.162399687276803 -2.130222251545166 -0.212311389333295 23
1.154008501876373 -2.132514534018290 -0.212137077847800 26
1.148441842386145 -2.140040925217148 -0.212485700818791 32
1.138156756277477 -2.138760151072572 -0.211962766362305 9
nan nan nan 0
nan nan nan 0
nan nan nan 0
nan nan nan 0
nan nan nan 0
1.402837276900269 -2.773536347337106 -0.271925917372694 3
1.389575109242175 -2.771292121658872 -0.271228671430712 4
1.385213952983843 -2.786830615437457 -0.272274540343684 4
1.380761184495312 -2.802372299548166 -0.273320409256656 5
1.360478545136202 -2.785691500510782 -0.271228671430712 5
1.312550465635562 -2.711516908773492 -0.263558966068918 4
1.166909356419974 -2.432258657080324 -0.236017751360658 11
nan nan nan 0
1.143103440895460 -2.423726101315654 -0.234448947991200 30
1.137585484915007 -2.435120024144483 -0.235146193933182 37
1.121545630039440 -2.422803541840914 -0.233577390563724 37
1.111843209332579 -2.422887743959304 -0.233228767592733 38
1.103378979070884 -2.426754039970196 -0.233228767592733 38
1.093264680711016 -2.426957596694017 -0.232880144621743 38
1.086410288871321 -2.434397877546254 -0.233228767592733 37
1.071461156554417 -2.423597297118822 -0.231834275708771 35
1.074983357490717 -2.454698448262801 -0.234448947991200 10
1.076715603944016 -2.482197719416301 -0.236714997302640 9
1.079055325873310 -2.511569293966764 -0.239155358099574 9
1.081646450670873 -2.540798391128660 -0.241595718896508 9
1.068900794809706 -2.535379058235713 -0.240724161469032 8
1.072325625640054 -2.568512234873034 -0.243513145236957 8
1.072487341677140 -2.594334817127111 -0.245604883062901 9
1.076091614886018 -2.631628775138924 -0.248742489801816 8
1.077366083905922 -2.661224059866869 -0.251182850598751 8
1.074467410400919 -2.679576173586173 -0.252577342482713 9
1.070987908149204 -2.698125128296800 -0.253971834366676 9
1.078799846895775 -2.744309875858325 -0.257980998533068 9
1.079328030349306 -2.774054022276243 -0.260421359330003 11
1.085612887462995 -2.820758259195155 -0.264430523496395 15
1.079305671962091 -2.833840163510977 -0.265302080923871 33
1.073417175959027 -2.846724988579500 -0.266173638351348 34
1.060687925969769 -2.842987760926040 -0.265476392409367 34
1.049571130535058 -2.844987038249001 -0.265302080923871 30
1.038267736398782 -2.844890116098012 -0.264953457952881 28
1.025262016010820 -2.836895236516952 -0.263907589039909 27
1.011329300757262 -2.829200021476342 -0.262861720126937 29
1.003608019070064 -2.840402016522124 -0.263558966068918 28
0.992372650566112 -2.840126201015487 -0.263210343097928 27
0.984250915484199 -2.847167505921139 -0.263558966068918 27
0.970440154371138 -2.839273988294492 -0.262513097155946 26
0.957477303745408 -2.835261129572641 -0.261815851213965 27
0.948836312607246 -2.842365817475508 -0.262164474184956 27
0.936411725772979 -2.838092311463778 -0.261467228242975 27
0.926499229888750 -2.841343707749995 -0.261467228242975 27
0.913403612801448 -2.833022865372953 -0.260421359330003 28
0.902299436089327 -2.832397200153188 -0.260072736359012 27
0.894303306130004 -2.843287641617655 -0.260769982300993 27
0.884964090074926 -2.848294688900383 -0.260944293786489 26
0.870835173476024 -2.835976727861028 -0.259549801902526 27
0.860352268142899 -2.837092583909149 -0.259375490417031 28
0.850443725339316 -2.840078489232632 -0.259375490417031 27
0.841654557808814 -2.846851065694245 -0.259724113388021 27
0.828362889357306 -2.838296053862409 -0.258678244475049 28
0.819553373353847 -2.844999358552726 -0.259026867446040 27
0.807933851150108 -2.840036038295874 -0.258329621504059 29
0.794784521735074 -2.831329481827044 -0.257283752591087 30
0.787590467379429 -2.845744728949985 -0.258329621504059 28
0.776602703130967 -2.844632497509222 -0.257980998533068 27
0.767165291807401 -2.847192164122742 -0.257980998533068 29
0.754152243444030 -2.838299267673415 -0.256935129620096 29
0.742220487948698 -2.833205056863580 -0.256237883678115 28
0.734318959294690 -2.843495033438157 -0.256935129620096 29
0.724388835609649 -2.846040961407830 -0.256935129620096 29
0.713480482645565 -2.844687147207837 -0.256586506649106 29
0.699722703332349 -2.831686630621647 -0.255192014765143 29
0.688420415155905 -2.828304260777351 -0.254669080308657 30
0.679936910133021 -2.836502570744273 -0.255192014765143 30
0.670946869626600 -2.842736934822439 -0.255540637736134 28
0.662012851859148 -2.844830744778804 -0.255540637736134 28
0.649409699201952 -2.835471645991910 -0.254494768823162 29
0.638632061169235 -2.833833944851960 -0.254146145852171 29
0.628736243934066 -2.836045922073930 -0.254146145852171 30
0.617489193459351 -2.834437847852780 -0.253797522881181 30
0.609260604153571 -2.844368810275501 -0.254494768823162 30
0.596538275092570 -2.830776984533201 -0.253100276939199 28
0.585441291319167 -2.826989066212128 -0.252577342482713 30
0.577256116719615 -2.834771882448937 -0.253100276939199 28
0.567357399394503 -2.836769611929317 -0.253100276939199 29
0.556300009145223 -2.832867625903017 -0.252577342482713 30
0.545276786946728 -2.828923081494370 -0.252054408026227 29
0.533917633050168 -2.822978487021652 -0.251357162084246 29
0.525514050541241 -2.832660861818493 -0.252054408026227 29
0.517049360346679 -2.842318870285568 -0.252751653968209 30
0.507124665917958 -2.844106392987776 -0.252751653968209 29
0.495136438711762 -2.834083291794643 -0.251705785055237 28
0.483896468460940 -2.827938988221503 -0.251008539113255 28
0.474680535293276 -2.833540888443758 -0.251357162084246 28
0.465431381667539 -2.839112859103838 -0.251705785055237 27
0.455518192780677 -2.840720220967837 -0.251705785055237 28
0.443130758514876 -2.826546194097835 -0.250311293171274 28
0.432658142965693 -2.824136964602075 -0.249962670200284 27
0.424566456273091 -2.837452737491840 -0.251008539113255 29
0.415154789506490 -2.838845049318834 -0.251008539113255 26
0.404680004472226 -2.836332085708567 -0.250659916142265 27
0.394227828586015 -2.833780632949431 -0.250311293171274 27
0.384333686438337 -2.835139480515843 -0.250311293171274 27
0.373913364284660 -2.832513276141115 -0.249962670200284 27
0.364023769800484 -2.833801220715135 -0.249962670200284 28
0.354129739801555 -2.835054636315574 -0.249962670200284 28
0.343751295269104 -2.832317756613234 -0.249614047229293 28
0.332696845779487 -2.823606910066551 -0.248742489801816 26
0.322159883799428 -2.818812526865613 -0.248219555345330 24
0.308370583842661 -2.784274846614073 -0.245081948606415 14
0.262539913550037 -2.448558458335152 -0.215448996072211 19
