# This PCD file was generated using the MATLAB® pcwrite function
# from Computer Vision Toolbox®.
# .PCD v.7 - Point Cloud Data file format
VERSION .7
FIELDS x y z intensity
SIZE 8 8 8 1
TYPE F F F U
COUNT 1 1 1 1
WIDTH 858
HEIGHT 1
VIEWPOINT 0 0 0 1 0 0 0
POINTS 858
DATA ascii
2.682816692305470 1.475500772150051 0.160462041840866 37
2.691457591662280 1.468039760398777 0.160671385665838 37
2.682511847314895 1.451033865264891 0.159834010365950 36
2.680520451707889 1.437884857302240 0.159415322716007 36
2.685523275872069 1.428519334707341 0.159415322716007 36
2.690741022831022 1.418666804763408 0.159415322716007 36
2.688596788661488 1.405564433968364 0.158996635066063 36
2.686150877940825 1.392963206811661 0.158577947416120 36
2.685668155322276 1.380838545021631 0.158263931678662 36
2.690711142477683 1.370985804330610 0.158263931678662 33
2.693697658161536 1.360684597901098 0.158159259766176 37
2.694387984244613 1.350425567890514 0.157949915941204 36
2.691930800673408 1.337457467173769 0.157531228291261 37
2.689184786470295 1.324992390087560 0.157112540641317 37
2.697612701274748 1.316879470031002 0.157321884466289 38
2.695001568521269 1.303975434008137 0.156903196816346 32
2.699536873343595 1.294560178704372 0.156903196816346 34
2.689608121531097 1.278270555065850 0.156065821516459 34
2.690218774017713 1.267641789420117 0.155856477691487 34
2.698466517154546 1.259462550118188 0.156065821516459 34
2.699220873385743 1.248358696465206 0.155856477691487 33
2.707193393326916 1.240593160742671 0.156065821516459 34
2.691502964525075 1.222052908503581 0.154914430479114 35
2.693930873407043 1.211831006352334 0.154809758566628 34
2.694495934129732 1.200794059245818 0.154600414741656 34
2.700706236758170 1.191716475886298 0.154705086654142 35
2.701189501558571 1.180682151181013 0.154495742829170 35
2.701628684247630 1.169658992840534 0.154286399004198 34
2.692845798531018 1.154711551815546 0.153553695616797 34
2.702174796287374 1.148118503340092 0.153867711354255 35
2.706166015192333 1.138679158332430 0.153867711354255 34
2.710321306146181 1.128752915767070 0.153867711354255 35
2.693934200954524 1.110909648187635 0.152716320316910 34
2.695754358049343 1.101214840904923 0.152611648404424 35
2.706988152068127 1.094793524282033 0.153030336054368 34
2.705230699582874 1.083110607252657 0.152716320316910 34
2.708994979965746 1.073660991202182 0.152716320316910 34
2.697667050397270 1.058833920528338 0.151878945017023 36
2.684773191562945 1.042433193421058 0.150936897804650 34
2.704811754288042 1.040447096168642 0.151878945017023 34
2.704693926853357 1.029578114625994 0.151669601192051 34
2.712365890997047 1.020592014184077 0.151878945017023 34
2.698890711003100 1.005317354342544 0.150936897804650 34
2.698461760513218 0.994980065890370 0.150727553979678 34
2.705671113648542 0.986923440621899 0.150936897804650 34
2.701584795990783 0.974761436702983 0.150518210154706 33
2.714376212381455 0.968681692753141 0.151041569717136 34
2.704890266040979 0.953603635363996 0.150308866329735 34
2.700658745291198 0.941526035655685 0.149890178679791 32
2.709593486515268 0.934045950589959 0.150204194417249 31
2.710946928534149 0.923937705700501 0.150099522504763 33
2.714155556977730 0.914469106023134 0.150099522504763 34
2.709751390124205 0.902464986244398 0.149680834854819 33
2.705141119101294 0.890974936324916 0.149262147204876 33
2.712033087046415 0.882763166503228 0.149471491029848 34
2.715097982909227 0.873291026274496 0.149471491029848 33
2.720033248398157 0.864413153004985 0.149576162942333 34
2.709695176874304 0.850725380467666 0.148843459554932 32
2.706925367624983 0.839486782759335 0.148529443817475 32
2.711748914169531 0.830617677479563 0.148634115729960 33
2.708896652453975 0.819412029605293 0.148320099992503 37
2.721167124418713 0.813284148087561 0.148843459554932 29
2.720298276257698 0.802175284978643 0.148634115729960 4
2.721025862445787 0.792591483817754 0.148529443817475 6
2.712258922583921 0.779777345843662 0.147901412342559 11
2.726357784418725 0.774051830085487 0.148529443817475 6
4.205867080910986 1.179048297757427 0.228917472606636 26
nan nan nan 0
4.198980704193867 1.143986238999455 0.228080097306749 48
4.216450279088990 1.132950019289849 0.228812800694150 56
4.220379324619192 1.118224958836703 0.228812800694150 58
4.224449476506277 1.102748984440401 0.228812800694150 58
4.212799042678095 1.084014497793654 0.227975425394263 58
4.212498818892088 1.069055804399061 0.227766081569292 61
4.222017638494541 1.055798526923352 0.228080097306749 63
4.217920246434383 1.039143434407394 0.227661409656806 61
4.221521836920764 1.024413814312470 0.227661409656806 60
4.209531494821785 1.005957977025643 0.226824034356919 63
4.213017297551536 0.991257841315570 0.226824034356919 61
4.216281262410749 0.977281522224828 0.226824034356919 63
4.215772446500448 0.961669621732296 0.226614690531947 60
4.223166533257795 0.947085682401222 0.226824034356919 60
4.214744544213735 0.929756847407297 0.226196002882003 61
4.214060608356585 0.914192112756161 0.225986659057031 61
4.217226060849446 0.899476726558566 0.225986659057031 61
4.216276256219247 0.884666680263481 0.225777315232060 60
4.231227509992414 0.871625135976410 0.226405346706975 63
4.218285388234944 0.855153479604021 0.225567971407088 63
4.217327103179334 0.839643730259040 0.225358627582116 63
4.216599412204453 0.822679279562032 0.225149283757144 61
4.219304330711893 0.808692008653178 0.225149283757144 60
4.222101487170509 0.793958961191460 0.225149283757144 63
4.216990672018647 0.777767208926313 0.224730596107201 61
4.215749126460651 0.762331627324933 0.224521252282229 61
4.218384476648094 0.747611272285274 0.224521252282229 65
4.221096274868003 0.732145098712741 0.224521252282229 61
4.225595278343641 0.717740717682644 0.224625924194715 58
4.220194069287929 0.701675945595925 0.224207236544771 61
4.212760947316471 0.685336941907684 0.223683876982342 60
4.219072455883340 0.671255121159645 0.223893220807314 60
4.219416335187947 0.656216790194109 0.223788548894828 56
4.221569228699799 0.642221093299280 0.223788548894828 58
4.215882968330206 0.626307194937699 0.223369861244884 60
4.210243620892672 0.609706016802528 0.222951173594941 54
4.212346241818169 0.595005809411122 0.222951173594941 52
4.218354717419618 0.580843233143446 0.223160517419912 57
4.230254185680391 0.567442550142016 0.223683876982342 61
4.218346048585113 0.550862404397867 0.222951173594941 54
4.212317878233140 0.535127447825837 0.222532485944997 54
4.218033581320798 0.521646225061361 0.222741829769969 55
4.225866309958326 0.506896458997470 0.223055845507427 55
4.231491647307468 0.493342775359584 0.223265189332398 55
4.221280253566710 0.477222921483158 0.222637157857483 54
4.212993414763506 0.461397819420807 0.222113798295054 55
4.222444693252178 0.448267894373059 0.222532485944997 55
4.229868346066002 0.434876087681020 0.222846501682455 55
4.239310526508246 0.420897748947102 0.223265189332398 60
4.224919141303709 0.403836745468068 0.222427814032511 57
4.222325357964680 0.388720366056454 0.222218470207540 55
4.227700741248384 0.373593776704830 0.222427814032511 57
4.232959285889653 0.359171797252649 0.222637157857483 57
4.236117725069672 0.345295086297604 0.222741829769969 30
4.217385110966996 0.328953041800733 0.221695110645110 46
4.280307233056432 0.318081772612170 0.224939939932173 16
4.434796374588973 0.314000424140140 0.232999677193586 7
3.325902690856527 0.223821584573955 0.174697421938946 11
nan nan nan 0
nan nan nan 0
nan nan nan 0
3.310722824098895 0.176984326267237 0.173755374726574 3
3.325283844096759 0.166124251044723 0.174488078113975 4
3.327865507832338 0.154027703410820 0.174592750026461 4
4.533624656410531 0.193978601572172 0.237814585167937 5
4.570165684933876 0.180361180009460 0.239698679592683 5
3.241472828267423 0.116026980662172 0.169987185877082 1
4.543340746606419 0.148336670949274 0.238233272817880 3
4.603723181019872 0.134222724370368 0.241373430192457 1
nan nan nan 0
3.478370632051273 0.077113084984894 0.182338471550416 3
3.211032568178109 0.059973079214906 0.168312435277307 1
4.573196009225355 0.069446412483380 0.239698679592683 5
4.569416315936879 0.053435846614239 0.239489335767711 5
3.155563157944098 0.025885815045887 0.165381621727703 1
4.585659608921123 0.020809206058902 0.240326711067598 7
3.195612759023072 0.003346439079083 0.167475059977420 2
3.235550033652743 -0.007905955902215 0.169568498227138 1
3.251480515871326 -0.019294900275191 0.170405873527025 2
3.267376042895676 -0.030224891109808 0.171243248826912 3
3.155413202405106 -0.040204990763236 0.165381621727703 1
3.187196493998659 -0.052294140278222 0.167056372327477 1
3.155044715983465 -0.062783432046452 0.165381621727703 1
4.586449469216224 -0.107284744509685 0.240431382980084 7
4.576064344989605 -0.123025407191737 0.239908023417655 7
3.154214268333383 -0.095818936733919 0.165381621727703 1
3.153860581273542 -0.106828615471843 0.165381621727703 1
3.153488983822645 -0.117286606669041 0.165381621727703 1
3.153060365029045 -0.128293622903170 0.165381621727703 1
4.573290835189523 -0.201273637298460 0.239908023417655 5
4.578507389500586 -0.218319619348996 0.240222039155112 7
3.151572122596117 -0.160754705280194 0.165381621727703 1
3.099140019974796 -0.168928421353428 0.162660152003069 1
3.150373050564909 -0.182752733137063 0.165381621727703 1
3.185632923259641 -0.195399740133510 0.167265716152448 2
3.149020433795729 -0.204741853883547 0.165381621727703 1
3.092494146278784 -0.211909627326693 0.162450808178098 1
3.095719798470463 -0.222990143971285 0.162660152003069 2
3.065048787565122 -0.231538156951917 0.161090073315781 4
3.044269371818432 -0.241193110572269 0.160043354190922 7
nan nan nan 0
nan nan nan 0
nan nan nan 0
3.028673307055755 -0.282561062447231 0.159415322716007 100
3.027668533169008 -0.293131383754069 0.159415322716007 88
3.028614147721149 -0.303897541182923 0.159519994628493 58
3.045414039071653 -0.316324617684968 0.160462041840866 14
nan nan nan 0
3.374705543712159 -0.373763358914483 0.177942251226009 2
nan nan nan 0
4.597840218458987 -0.541749254340546 0.242629493142288 69
4.607817407408392 -0.559239230295323 0.243257524617203 58
4.609800941137847 -0.575815219541468 0.243466868442175 67
4.623714329594472 -0.593131717911255 0.244304243742062 70
4.609628849851633 -0.608506179254278 0.243676212267146 65
4.607585625340222 -0.623788913602422 0.243676212267146 67
4.605380124697765 -0.639868588550751 0.243676212267146 69
4.614867367891280 -0.658436491441524 0.244304243742062 70
4.620563695718251 -0.674890969462033 0.244722931392005 74
4.602377581758188 -0.688651167471087 0.243885556092118 67
4.599945701326654 -0.704712267791669 0.243885556092118 67
4.613243034744913 -0.723239510278892 0.244722931392005 70
4.610690352269548 -0.739338327384300 0.244722931392005 52
nan nan nan 0
1.930357622218991 -0.323723812785561 0.102578474236170 1
1.842598000127672 -0.315623064452884 0.097972910086791 3
1.833615450087108 -0.320676713976231 0.097554222436847 9
1.816755424256141 -0.324267759599647 0.096716847136960 13
1.809717604628744 -0.329534043150262 0.096402831399503 15
1.784992039390617 -0.331473244419081 0.095146768449672 16
1.785786509816571 -0.338073519320996 0.095251440362158 15
1.780673345399910 -0.343548303544216 0.095042096537186 16
1.773584005560230 -0.348606319404756 0.094728080799728 18
1.770397932344927 -0.354403120244960 0.094623408887242 16
1.759364926770739 -0.358586440298651 0.094100049324813 18
1.767880608563306 -0.366754092487587 0.094623408887242 4
1.772452203534589 -0.374160489083241 0.094937424624700 4
1.767296070421484 -0.379198088313720 0.094728080799728 6
1.781504485336374 -0.389082269355536 0.095565456099615 18
1.731592428186950 -0.383567737913634 0.092948658287468 25
1.747779223859365 -0.393558534485401 0.093890705499841 46
1.752165572133587 -0.401299487074658 0.094204721237299 43
1.760551987639296 -0.409369380300144 0.094728080799728 39
1.764943607425694 -0.416889748606262 0.095042096537186 37
1.753766858049390 -0.420718452136660 0.094518736974757 36
1.752287592041173 -0.426837677740898 0.094518736974757 34
1.758542398992474 -0.434869539461463 0.094937424624700 34
1.766544664070458 -0.444053137052955 0.095460784187130 31
1.763048577636735 -0.449723164563434 0.095356112274644 25
1.767348473007318 -0.457067392804224 0.095670128012101 19
1.769606011357822 -0.464247446354314 0.095879471837073 16
1.785428518388892 -0.474732134126821 0.096821519049446 12
1.783760516551524 -0.480961550480697 0.096821519049446 3
1.862897507358621 -0.509631088448382 0.101217739373853 3
1.849559495495413 -0.512928243799810 0.100589707898938 6
nan nan nan 0
4.611723211055652 -1.314554167196005 0.251317261878616 78
4.599894580136858 -1.326821674935099 0.250898574228673 60
4.620157093264363 -1.350153204097935 0.252259309090989 72
4.609194094166718 -1.366180577908952 0.251945293353532 72
4.608222992142053 -1.383409879118523 0.252154637178503 72
4.611742882973818 -1.399396404499255 0.252573324828447 72
4.618037274987123 -1.419811536787768 0.253201356303362 70
4.619024954342350 -1.436897500624752 0.253515372040820 72
4.617791164083807 -1.454211997429655 0.253724715865792 72
4.611916392567863 -1.472737232680240 0.253724715865792 74
4.610808423136363 -1.489250542542703 0.253934059690763 72
4.616972434993865 -1.509059202366884 0.254562091165679 74
4.615469204469507 -1.526420498586947 0.254771434990651 74
4.614439582769397 -1.542179023137576 0.254980778815622 74
4.605244165182629 -1.556997654129305 0.254771434990651 76
4.610569254813440 -1.578550683094510 0.255399466465566 74
4.612580226611931 -1.597249111783619 0.255818154115509 74
4.618568977321704 -1.616494959972864 0.256446185590425 74
4.616663850198427 -1.633939666417195 0.256655529415397 76
4.607171253967728 -1.648698999365730 0.256446185590425 74
4.608900622460675 -1.667488977227979 0.256864873240368 76
4.614306326376731 -1.687683184244294 0.257492904715284 78
4.615880413106939 -1.706550210928275 0.257911592365227 76
4.609594589928576 -1.723456795810336 0.257911592365227 76
4.607287167946702 -1.740948745475857 0.258120936190199 76
4.616723864756013 -1.761109124813824 0.258958311490086 78
4.614275521587618 -1.778650482055374 0.259167655315058 78
4.619205252363058 -1.799095616599312 0.259795686789973 78
4.616614175580386 -1.816671389625860 0.260005030614945 81
4.614276702182939 -1.833445661869091 0.260214374439917 78
4.614939351890313 -1.853322741812628 0.260633062089860 76
4.615845052019130 -1.872423680609789 0.261051749739804 78
4.622217987892745 -1.893825169465658 0.261784453127205 76
4.610042663870066 -1.907657161984041 0.261470437389747 78
4.609220149813434 -1.925243493861156 0.261784453127205 76
4.615013639988518 -1.947559972184533 0.262517156514606 76
4.615536851747101 -1.966789341037300 0.262935844164550 74
4.619651262426241 -1.987624787786050 0.263563875639465 74
4.609021243777215 -2.002146739123559 0.263354531814493 74
4.607491654301088 -2.020629494137328 0.263668547551951 76
4.613194261112486 -2.042360077885517 0.264401250939352 74
4.614794194538720 -2.063330679460325 0.264924610501782 76
4.622127326527033 -2.085999411379308 0.265761985801669 80
4.611549054366692 -2.099660237635810 0.265552641976697 83
4.611451046904485 -2.119080577472259 0.265971329626641 83
4.618147243092482 -2.142692968227772 0.266808704926528 83
4.617874926876944 -2.162187938264859 0.267227392576471 80
4.625127341886875 -2.184312787023378 0.268064767876358 83
4.617474489507031 -2.200444186743933 0.268064767876358 83
4.616965320576746 -2.220010779861286 0.268483455526302 80
4.619969634775670 -2.241344146112943 0.269111487001217 83
4.630056740480438 -2.266237658233222 0.270158206126076 83
4.625699535787007 -2.284154371436690 0.270367549951048 80
4.622076913085521 -2.300454988491700 0.270576893776020 83
4.615399042203731 -2.318276767605906 0.270681565688505 80
4.621531616327216 -2.341594965824040 0.271518940988393 78
4.631114386051699 -2.366801957121048 0.272565660113251 82
4.626375047561658 -2.384783368888119 0.272775003938223 80
4.621985851223456 -2.401953858209288 0.272984347763195 80
4.622418349722397 -2.422708842222515 0.273507707325624 80
4.620996400109963 -2.442562711642520 0.273926394975568 80
4.626542050108897 -2.466194138570233 0.274763770275455 77
4.623182845559547 -2.485165706379791 0.275077786012913 82
4.621066101692099 -2.505902188193210 0.275496473662856 82
4.615795497736919 -2.523933878942742 0.275705817487828 82
4.617007011976602 -2.546622440660634 0.276333848962743 82
4.629035373783202 -2.574372030043092 0.277589911912574 82
4.630926555299443 -2.595567378320138 0.278217943387489 85
4.621838121167677 -2.611716515569495 0.278217943387489 85
4.623105771783872 -2.633765734685166 0.278845974862405 82
4.620811801978347 -2.653866149407219 0.279264662512348 89
4.621890663253842 -2.675984076331456 0.279892693987264 86
4.626321193300215 -2.700155337127718 0.280730069287151 86
4.620310561487191 -2.718313330278565 0.280939413112123 86
4.619383135795972 -2.739518598645047 0.281462772674552 89
4.613220917904464 -2.757676119742014 0.281672116499524 99
4.618963270769737 -2.783039262703557 0.282614163711897 76
4.582392189395256 -2.781758233335451 0.280939413112123 55
4.539799456679410 -2.778724065069651 0.278950646774891 50
4.506759599514416 -2.779086874094935 0.277485240000088 47
4.473282379817219 -2.780042050416339 0.276019833225286 45
4.449523150760760 -2.787935140151968 0.275182457925399 27
3.813652543846299 -2.407166246998229 0.236349178393134 29
3.774892771730338 -2.401168608477493 0.234465083968388 33
3.737903176623326 -2.396007768172293 0.232685661456128 31
3.722805994707631 -2.404706131453038 0.232266973806185 31
3.695976397346002 -2.405701572860334 0.231115582768840 31
3.660415871120087 -2.401701179369685 0.229440832169066 29
3.632017313141108 -2.401245915798633 0.228184769219235 30
3.600342362265670 -2.398407222547507 0.226719362444433 30
3.578681763335786 -2.402055404159425 0.225881987144546 27
2.933316946164047 -1.983765745191981 0.185583300837479 18
2.923073397889180 -1.991743559450896 0.185373957012507 20
2.895390995321986 -1.986229120288559 0.184013222150191 22
2.870366833528327 -1.983832601733984 0.182861831112846 19
2.856173706807533 -1.990271905028227 0.182443143462902 20
2.836131696272357 -1.991049056746018 0.181605768163015 20
2.825903074815674 -1.998630318239141 0.181396424338043 19
2.796136843499274 -1.992256906461758 0.179931017563241 19
2.779430226812429 -1.995017306556818 0.179302986088326 19
2.765975479598114 -2.000026013339375 0.178884298438382 19
2.753569130390036 -2.003523663431249 0.178465610788438 19
2.739764638680837 -2.008878547298212 0.178046923138495 19
2.700952820968613 -1.994226223390212 0.175953484888777 19
2.690770011757324 -2.001258289354284 0.175744141063805 19
2.667434726833964 -1.999129007555065 0.174697421938946 19
2.657602224712792 -2.005557360385813 0.174488078113975 19
2.644225199281868 -2.009987299160431 0.174069390464031 19
2.621334879498654 -2.007063179057011 0.173022671339172 19
2.607986725365164 -2.011322228071300 0.172603983689229 19
2.588331697648471 -2.010611661955288 0.171766608389342 19
2.574653900329623 -2.015160833178272 0.171347920739398 19
2.561330065192192 -2.019189811389215 0.170929233089455 19
2.535847638780366 -2.012772160038689 0.169673170139624 19
2.522566189280601 -2.016623103322854 0.169254482489680 19
2.509288829716621 -2.020405910563574 0.168835794839737 19
2.505323577417063 -2.031668652495283 0.169045138664709 19
2.476560101412562 -2.022713795263954 0.167579731889906 19
2.460229642235653 -2.023733489665468 0.166951700414991 19
2.437770251552012 -2.019567215477406 0.165904981290132 19
2.433772931311981 -2.030623389455720 0.166114325115104 19
2.417495350117817 -2.031397183904705 0.165486293640188 20
2.405815927914214 -2.035952808786759 0.165172277902731 20
2.378933361511663 -2.027496446323281 0.163811543040414 19
2.364263816253973 -2.029284005822906 0.163288183477985 20
2.356010236753656 -2.035807187791892 0.163183511565499 19
2.342507063895045 -2.039183235439511 0.162764823915555 19
2.331225773316350 -2.042990976178767 0.162450808178098 20
2.298623137287716 -2.028648904703276 0.160671385665838 19
2.288187087131520 -2.034406003582577 0.160462041840866 19
2.272498903703944 -2.033990614972132 0.159834010365950 19
2.263901553856662 -2.040573520577636 0.159729338453465 19
2.250849326403217 -2.043094081624913 0.159310650803521 19
2.231910434097278 -2.040158335796232 0.158473275503634 19
2.215958543770892 -2.039820730168781 0.157845244028719 19
2.208467342887690 -2.047928923165084 0.157845244028719 19
2.198385779128224 -2.052899142455309 0.157635900203747 19
2.185386493114385 -2.055087497842859 0.157217212553803 19
2.163697590335958 -2.048970354728572 0.156170493428944 17
2.145325963508128 -2.045109320479037 0.155333118129057 17
2.132410857117585 -2.047052870757465 0.154914430479114 18
2.125252317740565 -2.054483902387091 0.154914430479114 17
2.109481121147574 -2.053530887667456 0.154286399004198 17
2.090532296284131 -2.050061490618560 0.153449023704311 17
2.074836783494945 -2.048926076311777 0.152820992229396 17
2.068030891620247 -2.055795217340090 0.152820992229396 17
2.058019156438354 -2.060175438282878 0.152611648404424 17
2.048002074309615 -2.064510847920733 0.152402304579452 17
2.026766741957017 -2.057418785869478 0.151355585454594 17
2.012948397773571 -2.056991100499277 0.150832225892164 17
1.998437280838856 -2.057192183354795 0.150308866329735 17
1.990217486495374 -2.062370736901467 0.150204194417249 17
1.987152001940078 -2.073631401574870 0.150518210154706 18
1.964395910335193 -2.064982871794613 0.149366819117362 16
1.947934883544477 -2.061324231922707 0.148634115729960 18
1.946194490166693 -2.073936900739604 0.149052803379904 17
1.930773537832718 -2.071950682977247 0.148424771904989 17
1.922172808629388 -2.077211795100351 0.148320099992503 17
1.898693675019482 -2.066260994513937 0.147064037042672 17
1.888415728478176 -2.070254992873142 0.146854693217700 16
1.878496034783100 -2.073873619294496 0.146645349392729 16
1.868574120785915 -2.077448254807447 0.146436005567757 17
1.855989256109801 -2.077999717053175 0.146017317917813 16
1.847399125686106 -2.082971428068551 0.145912646005327 16
1.828236705018809 -2.075917646706531 0.144970598792954 17
1.821342661762086 -2.081968883996831 0.144970598792954 17
1.810134757083845 -2.083790448719765 0.144656583055497 17
1.802485124965771 -2.090410927845489 0.144656583055497 16
1.786084454161059 -2.086070046634455 0.143923879668096 17
1.773617162222844 -2.086205268359856 0.143505192018152 17
1.762459099482864 -2.087805117745764 0.143191176280694 17
1.752959439143158 -2.090577288766552 0.142981832455723 17
1.746929212139591 -2.098218430011765 0.143086504368208 18
1.723414844834665 -2.083991141742563 0.141725769505892 16
1.714497877154282 -2.088749983590640 0.141621097593406 17
1.706299849607871 -2.092875993576937 0.141516425680920 16
1.695214018887910 -2.094162197536776 0.141202409943462 17
1.688260205924265 -2.099772215388782 0.141202409943462 17
1.673809898153011 -2.095995054613247 0.140574378468547 16
1.657432298322218 -2.091159124119642 0.139841675081146 16
1.647652449568824 -2.093792782845958 0.139632331256174 16
1.642425969937635 -2.102965819785219 0.139841675081146 16
1.633851384386675 -2.107107786441687 0.139737003168660 17
1.616372949826044 -2.100419334430287 0.138899627868773 17
1.600543539714177 -2.094939206387281 0.138166924481372 17
1.595161747626002 -2.101547992443059 0.138271596393858 16
1.589018238393932 -2.108698424721054 0.138376268306343 16
1.580451421095529 -2.112633018578432 0.138271596393858 15
1.559968356079564 -2.100499173366515 0.137120205356513 16
1.550256319299740 -2.102716519283071 0.136910861531541 16
1.539368246635408 -2.103279986822900 0.136596845794083 16
1.528127968290534 -2.104059861971613 0.136282830056626 16
1.520774118877104 -2.109381205374061 0.136282830056626 16
1.509120195467692 -2.107916784514904 0.135864142406682 16
1.493654176657184 -2.101775605230760 0.135131439019281 17
1.487091751191472 -2.108868255211390 0.135236110931767 17
1.477430777008103 -2.110773808657366 0.135026767106795 17
1.471932454676759 -2.117044719191786 0.135131439019281 16
1.456224293714810 -2.110917285507738 0.134398735631880 18
1.442444194452216 -2.105848082032617 0.133770704156964 17
1.437330453834889 -2.114173718789814 0.133980047981936 17
1.429941853642372 -2.119178058102852 0.133980047981936 17
1.422906543652063 -2.123908264208908 0.133980047981936 17
1.404425582278403 -2.112230459471917 0.132933328857077 18
1.390443758082098 -2.107117809685816 0.132305297382162 17
1.384530027640703 -2.115783654447443 0.132514641207134 17
1.372784988393101 -2.113903506477146 0.132095953557190 17
1.370436117037515 -2.127315906701874 0.132619313119620 18
1.354395880375311 -2.118624393347452 0.131781937819733 18
1.342712687345051 -2.116593096404565 0.131363250169789 18
1.329996233458618 -2.112815879818150 0.130839890607360 18
1.326845388611594 -2.124221386850726 0.131258578257303 18
1.319422388625167 -2.128840000100649 0.131258578257303 17
1.304659641093278 -2.121523560296186 0.130525874869902 18
1.297246193442099 -2.126064747271219 0.130525874869902 18
1.286420844204907 -2.123296854287890 0.130107187219958 18
1.274885464726072 -2.120927142763152 0.129688499570015 18
1.272866607924421 -2.136101168055341 0.130316531044930 19
1.257271368420157 -2.126776869908655 0.129479155745043 19
1.248561746098122 -2.127271229041225 0.129269811920071 19
1.239118652285252 -2.128164552174915 0.129060468095099 19
1.232054591217430 -2.132261916330901 0.129060468095099 19
1.222245408686107 -2.133297341844324 0.128851124270128 18
1.211215875437979 -2.130393675429688 0.128432436620184 19
1.199847757386848 -2.127649839416331 0.128013748970241 19
1.192041471745560 -2.132033210274470 0.128013748970241 19
1.186902640821400 -2.139467447680665 0.128223092795212 18
1.180978113129885 -2.147303379947040 0.128432436620184 18
1.161998898296101 -2.130371969947667 0.127176373670354 19
1.154555433069314 -2.134415124091419 0.127176373670354 19
1.145209672953131 -2.134912217939375 0.126967029845382 23
1.137377136357365 -2.139095281427118 0.126967029845382 20
1.136423835726434 -2.155419598065559 0.127699733232783 8
nan nan nan 0
1.329049010323595 -2.561806372329992 0.151250913542108 21
1.313703599237611 -2.553997478808852 0.150518210154706 17
1.304780480791841 -2.558567600310071 0.150518210154706 17
1.296742605498640 -2.564888957144611 0.150622882067192 19
1.278832429765105 -2.551544353535820 0.149576162942333 19
1.267695234808317 -2.552636743641963 0.149366819117362 18
1.260541375170025 -2.560630081242488 0.149576162942333 18
1.252043088938325 -2.564796107865345 0.149576162942333 18
1.235253579914313 -2.552970131621215 0.148634115729960 17
1.215971135167282 -2.535655715588914 0.147378052780130 16
1.158245150834315 -2.437062758007051 0.141411753768434 41
1.148454515733873 -2.437276780490191 0.141202409943462 36
1.133600766102354 -2.428800849108920 0.140469706556061 38
1.125125861627104 -2.430537687950420 0.140365034643575 38
1.110806029906740 -2.421742508193387 0.139632331256174 35
1.100673329077887 -2.424171251156706 0.139527659343688 39
1.096726816871468 -2.436914442744828 0.140051018906118 36
1.082130630763567 -2.425945765963683 0.139213643606231 37
1.076884947354134 -2.437015720554558 0.139632331256174 36
1.061163709784816 -2.424293007486425 0.138690284043801 29
1.060639750036327 -2.446306785868918 0.139737003168660 9
1.066634001014662 -2.485049237769227 0.141725769505892 10
1.068110661638632 -2.512652356925162 0.143086504368208 11
1.067857623433648 -2.536614185406133 0.144237895405553 14
1.060533687127072 -2.544013225898666 0.144447239230525 18
1.051646962625595 -2.547699680315371 0.144447239230525 20
1.041991810062294 -2.549506283777928 0.144342567318039 18
1.033835180101627 -2.554979415858945 0.144447239230525 18
1.022682273155499 -2.553010493918699 0.144133223493067 17
1.006845198655953 -2.537822885508589 0.143086504368208 17
0.989949842990629 -2.520872414852958 0.141935113330864 17
0.982591440538532 -2.528035801621545 0.142144457155835 17
0.980214459312565 -2.548227200628363 0.143086504368208 17
0.964918619504555 -2.534833921785271 0.142144457155835 16
0.948320255862777 -2.517626987388494 0.140993066118491 17
0.933685891354549 -2.503915407594437 0.140051018906118 16
0.921047519327683 -2.497951060252861 0.139527659343688 18
0.901118364101921 -2.469096012132398 0.137748236831428 16
0.880286754298965 -2.438411812023123 0.135864142406682 19
0.869329724265638 -2.435978652137203 0.135550126669225 17
0.866567392550182 -2.453914302390245 0.136387501969112 14
0.857996353692603 -2.456924236999754 0.136387501969112 15
0.852674318825518 -2.469343621695881 0.136910861531541 17
0.849211888535153 -2.487426097720371 0.137748236831428 19
0.835414409165670 -2.475236186902790 0.136910861531541 19
0.821282557197492 -2.463123823032028 0.136073486231654 18
0.812054508814362 -2.464078723630173 0.135968814319168 17
0.804685347515871 -2.470696460664023 0.136178158144140 17
0.792384823962694 -2.462082950250370 0.135550126669225 17
0.778338563682598 -2.447703769909555 0.134608079456852 18
0.770986925816646 -2.454216661706836 0.134817423281823 18
0.760902571803470 -2.448997398137331 0.134398735631880 19
0.753521223597923 -2.455457275240689 0.134608079456852 19
0.742930200757011 -2.454509257807699 0.134398735631880 20
0.728066610770368 -2.436037798442351 0.133247344594535 21
0.718428323316422 -2.434733175238714 0.133038000769563 21
0.708808028868734 -2.433390993265471 0.132828656944591 21
0.699205872033913 -2.432011362288625 0.132619313119620 27
0.690712308328853 -2.434437229609896 0.132619313119620 36
0.680249443696106 -2.424937730318230 0.131991281644704 37
0.669759831998890 -2.421639705877819 0.131677265907247 38
0.660251295959496 -2.420109173497587 0.131467922082275 38
0.653875310608043 -2.430113783416442 0.131886609732218 37
0.648461926129406 -2.443964197820067 0.132514641207134 38
0.635295795783328 -2.426779643338759 0.131467922082275 37
0.623404594535751 -2.417487876812947 0.130839890607360 36
0.617422037819393 -2.429327833726806 0.131363250169789 31
0.606512290470330 -2.421781114084072 0.130839890607360 26
0.599968777722156 -2.431639909894649 0.131258578257303 25
0.589167007621267 -2.426059183152063 0.130839890607360 26
0.580694891293152 -2.428100979418255 0.130839890607360 26
0.571300154262034 -2.426225008936210 0.130630546782388 28
0.564631502457539 -2.435987143764770 0.131049234432331 26
0.555216786293312 -2.432004651066879 0.130735218694874 26
0.545848664281206 -2.430030500156710 0.130525874869902 27
0.535639251065972 -2.424120193503449 0.130107187219958 27
0.528022458032473 -2.429878574239824 0.130316531044930 28
0.519126507081337 -2.427709988750560 0.130107187219958 28
0.512292334417575 -2.437325493258223 0.130525874869902 29
0.501357391625200 -2.427363037566509 0.129897843394987 29
0.492086929777591 -2.425183569674952 0.129688499570015 28
0.486386054767195 -2.438554122316013 0.130316531044930 30
0.477103284963419 -2.436317010430052 0.130107187219958 29
0.469021543338585 -2.437885746239557 0.130107187219958 30
0.456381702515820 -2.419961804901853 0.129060468095099 29
0.447931678983240 -2.421540131102173 0.129060468095099 30
0.439832625928572 -2.425054149452254 0.129165140007585 31
0.432413626794655 -2.432473967710620 0.129479155745043 33
0.424687918430487 -2.435862106842012 0.129583827657529 31
0.414501718913557 -2.427485884736054 0.129060468095099 29
0.407013583635909 -2.434827752772034 0.129374483832557 32
0.397544706968083 -2.430320473011067 0.129060468095099 33
0.389058883391123 -2.431693356661059 0.129060468095099 33
0.380760284308432 -2.437049634623701 0.129269811920071 32
0.370442566589130 -2.426517586415305 0.128641780445156 33
0.362559230982948 -2.431746736772433 0.128851124270128 34
0.353493388276743 -2.429044609876181 0.128641780445156 33
0.345293012695529 -2.432241165342978 0.128746452357642 34
0.337896090150545 -2.441345243685906 0.129165140007585 34
0.327281066671100 -2.420622974251300 0.128013748970241 34
0.319611605615711 -2.427691167830223 0.128327764707698 35
0.311218396259491 -2.432808525461823 0.128537108532670 34
0.302724413688148 -2.433880058895102 0.128537108532670 35
0.294411767689095 -2.432887753323195 0.128432436620184 33
0.285218545889184 -2.427949762929904 0.128118420882726 34
0.275640500008091 -2.423025453597373 0.127804405145269 34
0.267837347570297 -2.429928563862943 0.128118420882726 34
0.260202415173332 -2.434775284896553 0.128327764707698 35
0.251276769917918 -2.435712620508574 0.128327764707698 35
0.242033812575311 -2.420591215835277 0.127490389407811 36
0.233966449425701 -2.425397385723710 0.127699733232783 35
0.225628816091511 -2.432204785256317 0.128013748970241 28
0.217028417352634 -2.426971661184713 0.127699733232783 36
0.208472863248174 -2.431730727958040 0.127909077057755 36
0.199001354276138 -2.420500360758412 0.127281045582839 36
0.191177831444068 -2.429144667346228 0.127699733232783 31
0.182697369452442 -2.429797203333528 0.127699733232783 34
0.174352573806066 -2.426405444400388 0.127490389407811 36
0.166426543729366 -2.434969706905720 0.127909077057755 35
0.156947187490799 -2.433597668959311 0.127804405145269 33
0.147965062927071 -2.426156470455108 0.127385717495325 34
0.140688304790831 -2.432591124506410 0.127699733232783 35
0.132196120018116 -2.433067398159046 0.127699733232783 34
0.123580735899309 -2.439519682599255 0.128013748970241 34
0.114405883669258 -2.425970904445722 0.127281045582839 34
0.106360445201647 -2.426336949216214 0.127281045582839 34
0.098212308279958 -2.434675978571809 0.127699733232783 34
0.089141741097528 -2.431027756032980 0.127490389407811 35
0.080787766499967 -2.435316430141312 0.127699733232783 35
0.072353924347007 -2.423592724086278 0.127071701757868 36
0.063893566169880 -2.423830521058445 0.127071701757868 35
0.056464007114044 -2.432006171149504 0.127490389407811 35
0.047471801019262 -2.428203031779535 0.127281045582839 35
0.039646249053979 -2.442326074669501 0.128013748970241 34
0.030917128972995 -2.426472810710255 0.127176373670354 33
0.021599937207770 -2.426573636363150 0.127176373670354 33
0.013608783992572 -2.436618061808317 0.127699733232783 34
0.005099133750838 -2.434653465929323 0.127595061320297 35
-0.003393846483585 -2.430661918240430 0.127385717495325 35
-0.011435369557032 -2.426642825449010 0.127176373670354 36
-0.019905864101743 -2.426588124621569 0.127176373670354 35
-0.029295279847697 -2.432485146344637 0.127490389407811 34
-0.037786059089426 -2.432368067202646 0.127490389407811 34
-0.045927164944588 -2.436223198652461 0.127699733232783 34
-0.054207813674232 -2.426064237178546 0.127176373670354 34
-0.062676027984611 -2.425860236183472 0.127176373670354 36
-0.071143478607371 -2.425626676846976 0.127176373670354 34
-0.079317103930256 -2.429369810465734 0.127385717495325 34
-0.088085271508350 -2.437061964532039 0.127804405145269 34
-0.096433451346735 -2.432748258613708 0.127595061320297 35
-0.104752591116845 -2.428406014988537 0.127385717495325 35
-0.113652440498858 -2.428005766415487 0.127385717495325 36
-0.122528473534710 -2.435573198899741 0.127804405145269 36
-0.130711416765542 -2.437147880932419 0.127909077057755 36
-0.138762149203056 -2.428700736310918 0.127490389407811 36
-0.146333096233429 -2.420252756957235 0.127071701757868 34
-0.155969847968758 -2.431659142366972 0.127699733232783 36
-0.164301568699950 -2.435114014277149 0.127909077057755 36
-0.173083518104789 -2.438510152939902 0.128118420882726 35
-0.181127687420251 -2.425909099999098 0.127490389407811 35
-0.189015982942160 -2.423303909370554 0.127385717495325 34
-0.197435910664269 -2.432651707332228 0.127909077057755 34
-0.205926246942083 -2.431947706844574 0.127909077057755 37
-0.214764997271720 -2.435193147612196 0.128118420882726 37
-0.223081693947067 -2.432439729551442 0.128013748970241 38
-0.232185226650949 -2.433593986423282 0.128118420882726 33
-0.240285374639606 -2.428793570219696 0.127909077057755 37
-0.249576260627014 -2.435887451204707 0.128327764707698 36
-0.257656566640072 -2.431029157352450 0.128118420882726 37
-0.266367999655988 -2.436117648633389 0.128432436620184 38
-0.273973942602350 -2.427234384819379 0.128013748970241 36
-0.283137735557919 -2.432214835804654 0.128327764707698 31
-0.292339628394129 -2.437160814143023 0.128641780445156 26
-0.301334703303250 -2.440089913171125 0.128851124270128 26
-0.308591839621108 -2.429116518680071 0.128327764707698 25
-0.317069158587692 -2.428024533129272 0.128327764707698 24
-0.326604743413512 -2.434821080199758 0.128746452357642 25
-0.335646746356813 -2.437623363912274 0.128955796182614 25
-0.344712285827851 -2.440392141973531 0.129165140007585 26
-0.351659414602574 -2.431328856227947 0.128746452357642 23
-0.360568318307884 -2.430023629275639 0.128746452357642 23
-0.370422753230977 -2.440662456551877 0.129374483832557 20
-0.378633412587670 -2.437380982652972 0.129269811920071 20
-0.390702489875529 -2.455701359314988 0.130316531044930 21
-0.394999463807020 -2.430735448206415 0.129060468095099 20
-0.405118087140860 -2.439193179533133 0.129583827657529 20
-0.412961769219439 -2.433825963395126 0.129374483832557 20
-0.424096111376878 -2.450155115508287 0.130316531044930 21
-0.432298658099816 -2.446693021600047 0.130211859132444 19
-0.438780339618712 -2.431333576823970 0.129479155745043 17
-0.446903032376882 -2.427822877103148 0.129374483832557 18
-0.457217124901465 -2.436063022784544 0.129897843394987 21
-0.465717786216334 -2.434452195850863 0.129897843394987 21
-0.476887623358478 -2.446534253783265 0.130630546782388 20
-0.483479905689339 -2.435059609255663 0.130107187219958 21
-0.491976904435504 -2.433357114222196 0.130107187219958 21
-0.502481053846128 -2.441406244518314 0.130630546782388 20
-0.510590635521260 -2.437682546786485 0.130525874869902 20
-0.519096624860186 -2.435885401665729 0.130525874869902 20
-0.527173196717330 -2.432106644553641 0.130421202957416 19
-0.535229718110557 -2.428301206726157 0.130316531044930 17
-0.546770263625822 -2.442105020605184 0.131153906344817 21
-0.556177808998412 -2.444076500701759 0.131363250169789 21
-0.566078101409446 -2.450002674277959 0.131781937819733 21
-0.571399971283590 -2.432356798326183 0.130944562519845 21
-0.582242013500216 -2.442105421603397 0.131572593994761 21
-0.590293026504380 -2.438116963626574 0.131467922082275 20
-0.604950288606875 -2.459210339135645 0.132723985032106 18
-0.618904224855711 -2.480444901060797 0.133980047981936 18
-0.618733776838255 -2.443418746849030 0.132095953557190 16
-0.627756166168042 -2.443178501555592 0.132200625469676 15
-0.637791981563302 -2.446770372985438 0.132514641207134 16
-0.643776276523734 -2.434874618405437 0.131991281644704 23
-0.653731418150550 -2.436356752930140 0.132200625469676 30
-0.660658910137554 -2.428278346201111 0.131886609732218 35
-0.668600101948174 -2.424032059305191 0.131781937819733 34
-0.681897445642746 -2.438994919515639 0.132723985032106 35
-0.690100210726622 -2.438762441700579 0.132828656944591 35
-0.701911991221302 -2.447858016490304 0.133456688419507 34
-0.706551811364834 -2.431967286304293 0.132723985032106 28
-0.842480098854523 -2.862501813018555 0.156379837253916 20
-0.859246238767093 -2.880447849428566 0.157531228291261 20
-0.871606063621487 -2.885078628722694 0.157949915941204 20
-0.883504304894033 -2.889812369104662 0.158368603591148 20
-0.891223827579900 -2.879079004335935 0.157949915941204 20
-0.902965382589589 -2.879604689257721 0.158159259766176 21
-0.915428550670395 -2.884049861429374 0.158577947416120 20
-0.927429582202426 -2.888604929735720 0.158996635066063 20
-0.939245656187064 -2.888985125198654 0.159205978891035 20
-0.944697543665978 -2.876697825165945 0.158682619328606 20
-0.955363108910701 -2.875278060687835 0.158787291241092 20
-0.971996484273064 -2.886562453922050 0.159624666540979 20
-0.984137918281348 -2.890886141407194 0.160043354190922 20
-0.992922510478656 -2.883656355621297 0.159834010365950 22
-1.000354972822271 -2.872628183951607 0.159415322716007 21
-1.010700157429885 -2.873239488382910 0.159624666540979 20
-1.024739438607553 -2.880984580962020 0.160252698015894 21
-1.037996769558366 -2.884726574948589 0.160671385665838 21
-1.050791121659164 -2.888593430533517 0.161090073315781 21
-1.058612688039721 -2.877225031614583 0.160671385665838 21
-1.067257250871699 -2.869768264788996 0.160462041840866 22
-1.080982232919403 -2.877431389345660 0.161090073315781 20
-1.091728671879145 -2.875507739705771 0.161194745228267 15
-1.098681833486898 -2.862164029994454 0.160671385665838 11
-1.094943055768369 -2.822931726228539 0.158682619328606 9
-1.095557067531925 -2.796969000744836 0.157426556378775 7
-1.088410569239737 -2.750413698093604 0.155019102391600 11
-1.133096665231115 -2.835814181504396 0.160043354190922 21
-1.165414799642996 -2.887404281760043 0.163183511565499 21
-1.176744160688811 -2.884962763957491 0.163288183477985 22
-1.188328938852639 -2.884530965625292 0.163497527302957 22
-1.196354067137787 -2.876886149151428 0.163288183477985 20
-1.209211289281090 -2.878005972594051 0.163602199215442 14
-1.221364543830522 -2.881548507269235 0.164020886865386 5
-1.218056257539102 -2.846052821139198 0.162241464353126 2
-1.223229930844245 -2.830783219287571 0.161613432878211 2
-1.223030546812857 -2.804742019415030 0.160357369928380 2
-1.244572611219112 -2.825830215059516 0.161822776703182 4
-1.272279882798773 -2.861618895097911 0.164125558777872 12
-1.281762357594814 -2.857384128815871 0.164125558777872 7
-1.287609647830421 -2.843795301217352 0.163602199215442 5
-1.281072999710577 -2.800688609868908 0.161404089053239 4
-1.264053533190020 -2.738172275896501 0.158054587853690 4
-1.241087739674664 -2.665163687936734 0.154077055179227 2
-1.270770020767691 -2.704198103447143 0.156589181078888 4
-1.278490192150813 -2.696136527528719 0.156379837253916 6
-1.345650621242894 -2.812367540055169 0.163392855390471 11
-1.391060850311242 -2.881396822975413 0.167684403802392 19
-1.408981733724100 -2.892683804713192 0.168626451014765 19
-1.418566471839543 -2.887995547952052 0.168626451014765 19
-1.433959630147936 -2.893763760099146 0.169254482489680 19
-1.447624190209525 -2.895886603314257 0.169673170139624 19
-1.461320999302187 -2.897949222624881 0.170091857789567 19
-1.475049803179298 -2.899951418909398 0.170510545439511 19
-1.481516725793663 -2.887676739371517 0.170091857789567 19
-1.492919641935231 -2.886295972947443 0.170301201614539 19
-1.509032935688186 -2.891428504439241 0.170929233089455 19
-1.524192677904133 -2.897013770350189 0.171557264564370 19
-1.539912559563051 -2.902261451476733 0.172185296039285 19
-1.544818525818869 -2.888333066294785 0.171661936476856 21
-1.560074875182267 -2.893742654551059 0.172289967951771 30
-1.573083603613953 -2.891239866126207 0.172499311776743 34
-1.579323693656535 -2.878726963339040 0.172080624126799 16
-1.583562110413715 -2.862710437842956 0.171452592651884 13
-1.581870863337991 -2.836233719741675 0.170196529702053 12
-1.579525344003580 -2.807787413966949 0.168835794839737 11
-1.578478238328579 -2.783146491265694 0.167684403802392 11
-1.581752368199064 -2.767492658375346 0.167056372327477 10
-1.585420365426823 -2.751571164307938 0.166428340852561 11
-1.579968166411606 -2.720114399528408 0.164858262165273 11
-1.579361743553723 -2.697347263769658 0.163811543040414 11
-1.578615750805040 -2.674617715376531 0.162764823915555 11
-1.581815182930962 -2.658792279886894 0.162136792440640 11
-1.584462131807534 -2.643253804120830 0.161508760965725 11
-1.579219332511672 -2.613774363750764 0.160043354190922 11
-1.578984237772692 -2.592893277977925 0.159101306978549 11
-1.578622722057343 -2.572045868555707 0.158159259766176 11
-1.581287085538309 -2.556328434537082 0.157531228291261 11
-1.581747809160316 -2.537234105212063 0.156693852991374 10
-1.577406167166723 -2.511678497979267 0.155437790041543 13
-1.574848731453562 -2.487318069753328 0.154286399004198 13
-1.575570257867033 -2.470294643375003 0.153553695616797 18
-1.576624438181508 -2.453018778008612 0.152820992229396 19
-1.588434680286803 -2.452529497436708 0.153135007966854 36
-1.586737207846314 -2.432193729112233 0.152192960754481 37
-1.589731864184167 -2.418295460044487 0.151669601192051 26
-1.601472432804168 -2.417726830548341 0.151983616929509 27
-1.614337109728438 -2.418766882879063 0.152402304579452 31
-1.626113966896945 -2.418089140658703 0.152716320316910 29
-1.633845177236693 -2.410459628699822 0.152611648404424 30
-1.646754782648464 -2.411339130456664 0.153030336054368 30
-1.659269354885613 -2.412447430528109 0.153449023704311 30
-1.681331120688755 -2.426340454010284 0.154705086654142 32
-1.692076976692850 -2.423732044631856 0.154914430479114 31
-1.698229062116267 -2.414543515604355 0.154705086654142 31
-1.711265846869659 -2.415119420646342 0.155123774304085 30
-1.723166906541863 -2.414008058318354 0.155437790041543 28
-1.735404152475093 -2.415070430843334 0.155856477691487 28
-1.760219673922813 -2.431648108629833 0.157321884466289 29
-1.758105986057898 -2.410965094788355 0.156379837253916 25
-1.777152747010400 -2.419300299355449 0.157321884466289 30
-1.790761170695542 -2.419191671083045 0.157740572116233 30
-1.808745949321831 -2.425735172149911 0.158577947416120 30
-1.822352262597740 -2.428027801554713 0.159101306978549 29
-1.824010613227486 -2.411774347608963 0.158473275503634 28
-1.841256501576913 -2.418745669131276 0.159310650803521 29
-1.849688282005230 -2.412303748691922 0.159310650803521 29
-1.873170618412042 -2.424473997540971 0.160566713753352 33
-1.884879174035652 -2.422978309883351 0.160880729490809 33
-1.890861799790364 -2.413239805722127 0.160671385665838 32
-1.907935243590003 -2.417599600079395 0.161404089053239 34
-1.920090949201242 -2.415615449813645 0.161718104790696 33
-1.937248914592597 -2.419812467492489 0.162450808178098 34
-1.950288638481630 -2.417019205282657 0.162764823915555 33
-1.965011843046939 -2.417946530802890 0.163288183477985 33
-1.978078262076413 -2.417600142588981 0.163706871127928 34
-1.991585786291334 -2.416846055668044 0.164125558777872 34
-2.007240876211281 -2.419451243436284 0.164753590252787 33
-2.027199563831291 -2.426223997104809 0.165695637465160 32
-2.034370367267934 -2.417604773512300 0.165590965552674 36
-2.047962088556623 -2.416583555120397 0.166009653202618 34
-2.062867991425976 -2.417016012692004 0.166533012765047 33
-2.079103669011575 -2.418888405609323 0.167161044239963 33
-2.100606098503071 -2.426717158482939 0.168207763364821 32
-2.106439278122990 -2.416358851373862 0.167998419539850 31
-2.120131793315916 -2.414995001439312 0.168417107189793 33
-2.139131995804346 -2.419550211234160 0.169254482489680 32
-2.155533470293955 -2.421018667811458 0.169882513964596 32
-2.169726769597860 -2.419049244231930 0.170301201614539 32
-2.179992196330042 -2.415186158008123 0.170510545439511 31
-2.196469928155370 -2.416429482149406 0.171138576914426 31
-2.212982804306074 -2.417587090486721 0.171766608389342 33
-2.223694515258142 -2.413172802488631 0.171975952214313 33
-2.249765717109353 -2.424428306020357 0.173336687076630 34
-2.256851188556945 -2.415101112092674 0.173232015164144 31
-2.269373940627573 -2.411572037646560 0.173546030901602 34
-2.292889989417058 -2.419582672114952 0.174697421938946 32
-2.308638376937670 -2.418385933274639 0.175220781501376 34
-2.328139249205348 -2.421831365255083 0.176058156801263 34
-2.339357168396103 -2.416559911712671 0.176267500626235 34
-2.349172452134856 -2.409809462775985 0.176372172538721 32
-2.374913984811545 -2.420952411422686 0.177732907401037 34
-2.391771949199446 -2.421172922057813 0.178360938875953 34
-2.412886007803654 -2.425553040550785 0.179302986088326 32
-2.426992097177027 -2.422759889099408 0.179721673738269 31
-2.436852745528758 -2.415679445211812 0.179826345650755 16
nan nan nan 0
nan nan nan 0
nan nan nan 0
nan nan nan 0
nan nan nan 0
nan nan nan 0
nan nan nan 0
nan nan nan 0
nan nan nan 0
nan nan nan 0
nan nan nan 0
nan nan nan 0
nan nan nan 0
nan nan nan 0
nan nan nan 0
nan nan nan 0
nan nan nan 0
nan nan nan 0
nan nan nan 0
nan nan nan 0
nan nan nan 0
nan nan nan 0
nan nan nan 0
nan nan nan 0
nan nan nan 0
nan nan nan 0
nan nan nan 0
nan nan nan 0
nan nan nan 0
nan nan nan 0
nan nan nan 0
nan nan nan 0
nan nan nan 0
nan nan nan 0
